# .PCD v0.7 - Point Cloud Data file format
VERSION 0.7
FIELDS x y z intensity
SIZE 4 4 4 4
TYPE F F F F
COUNT 1 1 1 1
WIDTH 1475
HEIGHT 1
VIEWPOINT 0 0 0 1 0 0 0
POINTS 1475
DATA ascii
23.533211 -52.784935 1.0079463 0
23.657372 -52.407139 1.0028152 0
7.2801504 -29.74552 1.0677152 0
30.4226 -26.502686 1.4072874 0
30.718941 -26.508652 1.4152443 0
33.215218 -26.565702 1.4835776 0
19.326628 -26.174263 1.1345129 0
19.71353 -26.184778 1.1428888 0
20.244051 -26.204988 1.1546848 0
20.780895 -26.217602 1.1665854 0
21.300827 -26.200062 1.1774741 0
21.955427 -26.262926 1.1937023 0
22.232367 -26.270126 1.2001239 0
22.742157 -26.287567 1.2121642 0
23.25881 -26.298262 1.2243209 0
23.565392 -26.318121 1.2319522 0
27.888651 -26.429663 1.3400708 0
28.248064 -26.438683 1.3494239 0
28.70344 -26.4505 1.3613596 0
30.234896 -26.498783 1.4022617 0
4.3189611 -25.898359 1.3735049 0
21.400803 -25.912966 1.1719251 0
21.572065 -25.947573 1.1766714 0
11.785563 -24.601425 1.4270968 0
14.790911 -23.276485 1.4427975 0
14.680305 -22.687586 1.4136988 0
-4.4547362 -22.190416 1.18363 0
-4.4347854 -21.737999 1.1601834 0
-4.4527898 -21.326389 1.1392491 0
-4.2205248 -20.688204 1.1040792 0
-3.9004428 -20.67551 1.3208975 0
-4.423007 -20.238068 1.0831449 0
17.394636 -20.169979 1.3933506 0
17.286875 -19.549568 1.365131 0
17.630699 -19.750626 1.3850188 0
18.124613 -19.617804 1.3972305 0
34.003338 -19.680883 1.3702939 0
17.363085 -19.388956 1.3615025 0
17.51383 -19.195375 1.3592695 0
33.930935 -19.425957 1.363663 0
34.121235 -19.322092 1.3676414 0
21.100864 -18.613907 1.4721057 0
20.889589 -18.349804 1.4546604 0
31.362894 -17.506891 1.2526127 0
31.687965 -17.818159 1.2678289 0
5.9309926 -17.083788 1.2611971 0
20.313278 -17.32098 1.3965325 0
20.809408 -17.250854 1.4140756 0
21.03871 -17.003933 1.4151642 0
25.996464 -17.036032 1.0836992 0
26.237431 -17.017698 1.0903999 0
26.748308 -17.058224 1.1061745 0
31.649128 -17.280521 1.2575547 0
5.0839062 -16.528738 1.2058802 0
5.6179256 -16.767876 1.2332246 0
7.8439689 -16.622667 1.281938 0
8.2052135 -16.678612 1.296424 0
11.58434 -16.698023 1.0625594 0
16.816402 -16.543503 1.2337677 0
21.210539 -16.681051 1.4116952 0
21.952909 -16.751717 1.4446819 0
26.801622 -16.974331 1.1061745 0
27.237249 -16.91181 1.1179006 0
31.712557 -16.933239 1.2537295 0
5.2974181 -16.487751 1.2076241 0
8.2654676 -16.349812 1.2777294 0
11.470548 -16.324533 1.3917811 0
11.755344 -16.236053 1.2232187 0
12.242042 -16.140547 1.2559388 0
12.501807 -16.13855 1.4241481 0
16.948357 -16.46567 1.2358613 0
17.17292 -16.427385 1.2429441 0
21.191818 -16.482948 1.4044876 0
11.992365 -15.976713 1.0444163 0
19.14781 -14.514449 1.256691 0
40.181602 -14.79501 1.4935937 0
7.5036879 -14.013029 1.3864735 0
19.230154 -14.296596 1.2532996 0
28.851469 -14.496183 1.1258578 0
29.084623 -14.332291 1.1306041 0
34.660065 -14.303195 1.307698 0
40.289337 -14.419674 1.4926515 0
40.518566 -14.294095 1.498724 0
7.5344467 -13.964828 1.3840332 0
13.377905 -13.897614 1.1210933 0
13.739156 -13.762711 1.2710364 0
-4.3780088 -13.18849 1.2115519 0
-4.306942 -11.68596 1.133963 0
-4.6481934 -11.205675 1.0571643 0
-4.3915138 -11.338055 1.2026671 0
-3.1797299 -11.105972 1.0064745 0
-4.6593733 -10.769035 1.0223716 0
-4.3396716 -10.793056 1.2176172 0
-3.7884657 -10.591472 1.3094145 0
-3.4772062 -10.691216 1.1765723 0
5.7658138 -10.522277 1.0455203 0
11.480062 -10.548922 1.3598039 0
-4.6579003 -10.493104 1.0001993 0
-4.3203769 -10.236737 1.1627746 0
-3.9798644 -10.486441 1.3712739 0
5.3706684 -10.109105 1.2728659 0
5.8096275 -10.181435 1.2261126 0
6.2306166 -10.211113 1.3428205 0
11.428336 -10.258389 1.2199177 0
11.608864 -10.163847 1.2919968 0
16.770561 -10.022022 1.1919361 0
34.427109 -10.015287 1.2503791 0
-4.2936711 -9.7079935 1.1106497 0
5.2667603 -9.7234201 1.2850554 0
5.7907538 -9.8184204 1.2657777 0
6.2392001 -9.686861 1.1614714 0
6.5939751 -9.7142067 1.1612819 0
16.815578 -9.8828535 1.262965 0
34.316975 -9.7517548 1.2441437 0
39.924732 -9.7714787 1.4336712 0
40.108154 -9.7322798 1.4395809 0
-4.5857272 -9.1966677 1.0750753 0
-4.3517528 -9.2361488 1.1508641 0
5.2264166 -9.4402027 1.3189919 0
6.2286429 -9.4140787 1.380118 0
34.165436 -9.4209299 1.2359307 0
39.945393 -9.2534218 1.4301814 0
40.032871 -9.4063292 1.4343694 0
-4.6175666 -8.7475033 1.0345929 0
-4.3080206 -8.7332563 1.1897697 0
-4.6165438 -8.4550972 1.0074453 0
-4.250699 -8.2599363 1.1347255 0
-4.5878925 -7.6824646 1.0928159 0
-4.3202381 -7.7543421 1.1224893 0
-4.6146688 -7.2349062 1.0477839 0
-4.25665 -7.2234445 1.171599 0
9.1965284 -7.065618 1.4180717 0
-4.6116629 -6.8709211 1.0101507 0
-4.2711253 -6.6894741 1.1320255 0
8.9795485 -6.6578922 1.3666427 0
9.1758451 -6.6718593 1.2812563 0
14.086963 -6.6449289 1.2422355 0
18.937725 -6.6495562 1.400152 0
23.324799 -6.6011782 1.2678909 0
28.965214 -6.6108966 1.035817 0
33.437771 -6.6567674 1.1889095 0
37.272789 -6.5797939 1.3200386 0
37.549286 -6.5071101 1.3291124 0
-4.5757594 -6.2814217 1.0855105 0
-4.335175 -6.326407 1.1607271 0
9.2779455 -6.384295 1.3241032 0
9.5689507 -6.4660273 1.2087672 0
13.77826 -6.1815567 1.1409277 0
14.034557 -6.4169774 1.3459171 0
23.339586 -6.2914815 1.2643321 0
28.799849 -6.3863206 1.0284648 0
29.123066 -6.2683196 1.038609 0
33.434937 -6.3862772 1.1870017 0
33.577938 -6.1987538 1.190701 0
37.5896 -6.2773643 1.3291589 0
-4.5824294 -5.7540197 1.0270975 0
-4.2983017 -5.6806855 1.1536537 0
-4.5793509 -5.2651539 1.097718 0
-4.2901797 -5.234324 1.2063682 0
-4.5760412 -4.7089682 1.0504793 0
-4.2898412 -4.7454 1.1998795 0
-4.5697131 -4.286962 1.0775532 0
-4.2668152 -4.244122 1.2367152 0
-4.563674 -3.6984897 1.0632159 0
-4.2943068 -3.7555418 1.1735343 0
34.80468 -3.7933016 1.2209239 0
-4.5671415 -3.2758672 1.0715734 0
-4.2655444 -3.2619028 1.1891598 0
34.4744 -3.1615419 1.2072433 0
34.516022 -3.056051 1.2083602 0
-4.5564609 -2.7356203 1.0687422 0
-4.2935233 -2.8014522 1.1447293 0
5.8494883 -2.634527 1.470023 0
-4.5473566 -2.2069042 1.0847992 0
-4.3071256 -2.2554238 1.1695778 0
5.9004197 -2.1099489 1.2728742 0
6.6923714 -2.1336784 1.4828261 0
-4.5499878 -1.7442836 1.0708156 0
-4.274961 -1.7447675 1.1481063 0
5.9293051 -1.8053446 1.2343981 0
6.0854778 -1.8030075 1.362992 0
12.316898 -1.7838421 1.20453 0
12.532807 -1.7807027 1.3254209 0
16.980242 -1.8783652 1.1912546 0
17.039934 -1.6859853 1.3224496 0
21.409977 -1.790262 1.1234436 0
21.579311 -1.941177 1.1329688 0
26.642849 -1.5444946 1.3961139 0
-4.5435195 -1.2275046 1.0873418 0
-4.3421998 -1.2887014 1.1270312 0
26.643839 -1.4559147 1.3959047 0
31.40358 -1.3589652 1.0959837 0
37.223022 -1.1704528 1.2988197 0
-4.5415864 -0.74624085 1.094018 0
-4.2782431 -0.75019026 1.087494 0
37.301514 -0.94110876 1.3013325 0
-4.5304265 -0.24816789 1.078379 0
-4.3567638 -0.25069889 1.0927025 0
41.442932 -0.39930654 1.4456069 0
-4.520782 0.24950117 1.0760443 0
-4.3307905 0.25318426 1.0861416 0
-4.5120873 0.74073869 1.0874181 0
-4.2894483 0.75277716 1.0877465 0
-4.5038061 1.2218138 1.1021297 0
-4.391376 1.2556677 1.1131588 0
9.4032431 1.4804674 1.3734034 0
-4.5022249 1.7678831 1.0668559 0
-4.3482909 1.7476071 1.12867 0
9.3897457 1.5951847 1.203436 0
13.915747 1.6328105 1.4675796 0
14.293508 1.817929 1.1555759 0
34.420952 1.7560072 1.2018921 0
-4.502326 2.1930838 1.0619943 0
-4.3387213 2.2499342 1.1632084 0
23.218529 2.1165714 1.219358 0
-4.5009499 2.8331816 1.1202282 0
-4.3525386 2.7439241 1.1442744 0
-4.3403816 3.2467611 1.1425222 0
-4.5009632 3.7762375 1.0276113 0
-4.3448467 3.7307377 1.1591133 0
5.9688063 3.9617028 1.3831744 0
6.0018473 3.916935 1.3837469 0
-4.5014277 4.331336 1.0930111 0
-4.2946124 4.2160444 1.1687618 0
5.1836886 4.3130693 1.3064086 0
5.7088089 4.1706796 1.2438393 0
6.3176932 4.2702823 1.3460109 0
10.824601 4.4161658 1.2541592 0
-4.3599176 4.7722044 1.1307707 0
5.2017179 4.7731915 1.2738245 0
5.7440047 4.7598281 1.1520883 0
6.2638388 4.7220039 1.0957377 0
10.46649 4.9245353 1.4143668 0
10.666775 4.6960626 1.2315629 0
15.907604 4.8524065 1.4508528 0
16.041904 4.9466047 1.1705136 0
21.790941 4.9655347 1.1687665 0
31.253317 4.8159041 1.1026007 0
-4.2877212 5.2287488 1.1801332 0
5.2410088 5.188448 1.1990272 0
5.7372165 5.1593056 1.1656601 0
6.0992575 5.0783124 1.1792892 0
10.364235 5.1875381 1.4172297 0
10.616716 5.1244888 1.2340212 0
11.107474 5.3309851 1.2898811 0
15.771711 5.118814 1.3180828 0
16.060005 5.0628166 1.1741409 0
21.731354 5.0929527 1.1672314 0
-4.3504434 5.771884 1.1335527 0
5.371717 5.5086536 1.3482045 0
-4.3172402 6.2437897 1.1268023 0
-4.3389926 6.8046827 1.1550993 0
-4.2782812 7.2028232 1.1366975 0
18.523375 7.2581496 1.0401248 0
19.897337 7.2690072 1.4779603 0
34.621666 7.3658495 1.2343951 0
-4.2603841 7.768188 1.2041086 0
10.779557 7.9776988 1.4044445 0
12.305843 7.9827991 1.2790977 0
12.633062 7.9741602 1.302804 0
18.135799 7.5870528 1.3713193 0
18.644598 7.6740336 1.1125679 0
19.679607 7.6077642 1.4720291 0
29.389351 7.7011971 1.0592694 0
34.445473 7.6678371 1.2306261 0
34.619938 7.5355978 1.2355818 0
-4.3338642 8.2742062 1.1788684 0
9.6093483 8.3188286 1.1571165 0
10.726986 8.0403156 1.2988448 0
11.493653 8.0818834 1.2250611 0
11.664783 8.0411768 1.378039 0
12.314677 8.0776291 1.1121997 0
12.574626 8.0624256 1.2373817 0
18.977364 8.0544767 1.0779114 0
19.398922 8.3387432 1.1040792 0
24.488556 8.1867456 1.3506863 0
24.541859 8.0767021 1.3515238 0
34.442711 8.3419695 1.2358611 0
41.672852 8.3247404 1.4823213 0
-4.2752523 8.6863985 1.1254594 0
9.5955696 8.7543154 1.1322112 0
41.693935 8.5333767 1.4844849 0
-4.3065028 9.2486277 1.1436986 0
9.5898285 9.2419729 1.1610307 0
27.453678 9.4126396 1.0118062 0
-4.319098 9.7593451 1.1784377 0
-3.6044576 9.6021643 1.305981 0
-3.4926074 9.6554422 1.4362663 0
9.5720301 9.789443 1.2900113 0
12.314761 9.6317482 1.0898751 0
27.285154 9.7358742 1.0099913 0
-4.1936059 10.150826 1.1493601 0
9.5564003 10.261002 1.3455187 0
27.316687 10.277503 1.0175297 0
-4.2712975 10.72978 1.0918902 0
9.5397997 10.755959 1.2349546 0
22.078154 10.97238 1.2895579 0
27.235529 10.585527 1.0187163 0
-4.2741337 11.2944 1.1370095 0
9.5281954 11.252398 1.1654147 0
16.677567 11.383963 1.0557209 0
21.955368 11.296709 1.2914944 0
22.027958 11.077191 1.2896626 0
-4.2614021 11.829599 1.2045829 0
9.4959869 11.857273 1.0589032 0
9.5233717 11.725038 1.2385776 0
-4.3290143 12.313125 1.1377062 0
9.4894943 12.260428 1.0807869 0
9.5184326 12.257812 1.3535868 0
-4.1335273 12.684515 1.1630062 0
-3.9444156 12.986679 1.1832263 0
4.3883576 12.871844 1.3049769 0
9.4807663 12.81287 1.1815232 0
9.5066156 12.683567 1.382569 0
-4.0524368 13.124444 1.1975198 0
9.4668884 13.265736 1.2662026 0
9.5012732 13.266601 1.4234275 0
9.4514637 13.750186 1.2962419 0
9.3866844 14.004251 1.175536 0
29.675806 15.343666 1.1649452 0
-4.241641 15.878387 1.1459036 0
29.974945 15.617726 1.1786258 0
30.015919 15.922001 1.1848379 0
-4.0793939 16.171844 1.1629102 0
29.858414 16.185734 1.1843493 0
-4.0575418 16.74559 1.2014854 0
29.78945 16.692011 1.190771 0
30.058716 16.594643 1.1973319 0
-4.0552874 17.201523 1.2324573 0
4.7686644 17.365406 1.2558955 0
30.080151 17.287148 1.2098608 0
-4.0565939 17.705103 1.2667775 0
29.276106 17.870125 1.1960756 0
29.794483 17.681293 1.2081926 0
-4.0605531 18.101105 1.2938432 0
23.297318 18.223591 1.0312103 0
23.718752 18.19993 1.0423434 0
24.080563 18.18195 1.0520104 0
25.796959 18.067856 1.0981476 0
26.186258 18.038668 1.1087337 0
26.515696 18.022259 1.1179007 0
-4.2880139 18.819386 1.0090373 0
-4.2823133 19.201458 1.0285063 0
-4.2727685 19.741362 1.0560349 0
-4.2716837 20.339939 1.0867038 0
6.6249628 20.04974 1.2885983 0
-4.2640772 20.790306 1.1097317 0
-4.2366829 21.339102 1.1376442 0
-4.1340494 21.693481 1.1548452 0
14.129973 21.935196 1.3649217 0
-4.0650449 22.277208 1.1842581 0
-3.9579928 22.491259 1.1943065 0
13.423464 22.495653 1.3703647 0
13.755624 22.27742 1.3696768 0
14.495749 22.197971 1.3869028 0
14.598644 22.128006 1.3867981 0
-3.9595923 22.904573 1.2156596 0
13.319784 22.55484 1.37026 0
14.07155 22.685753 1.3965327 0
-3.9382517 23.216228 1.2315696 0
-3.9306724 23.622553 1.2525041 0
-3.9285638 24.072271 1.2757412 0
-3.9229496 24.502096 1.2979318 0
-3.9168146 25.228901 1.3355089 0
-3.8780804 26.042879 1.3773777 0
-4.3183637 29.196548 1.0289767 0
-4.3145423 29.819284 1.0504749 0
-4.3040719 30.422485 1.0712749 0
-4.2952995 31.065514 1.0934711 0
-4.2798748 31.688965 1.114969 0
-4.2760506 32.423485 1.1403759 0
6.50951 57.978977 1.0175451 0
6.3307276 58.039009 1.0182432 0
10.369886 61.202389 1.0826775 0
10.66203 61.208939 1.0836549 0
11.013856 61.540825 1.0904263 0
6.7060118 64.16275 1.1252265 0
7.4644394 64.640686 1.1349649 0
7.7952824 64.82309 1.1388044 0
11.553118 76.856827 1.3557727 0
11.334818 77.059105 1.3587047 0
-14.196671 -107.09872 1.8849297 0
-13.701569 -107.23992 1.886256 0
-14.670282 -106.80491 1.8809506 0
3.7161453 -86.130882 1.5039786 0
3.963691 -85.915665 1.5004183 0
13.909061 -51.643295 1.8660063 0
14.070186 -51.59549 1.8658667 0
-6.6780677 -36.665871 1.9506657 0
-6.6112652 -36.312439 1.9318247 0
7.174974 -29.786146 1.6031551 0
35.73114 -26.646446 1.5548425 0
36.107056 -26.663204 1.5657309 0
20.471188 -26.277735 1.7432059 0
20.744801 -26.2864 1.7524171 0
21.205641 -26.280087 1.7672281 0
21.925207 -26.324409 1.7929251 0
22.215828 -26.336206 1.8031831 0
4.3674788 -25.910498 1.8340372 0
4.5252104 -25.903755 1.8354324 0
21.365234 -25.973808 1.7600582 0
44.871872 -23.612255 1.7689856 0
14.687746 -23.186611 1.9159312 0
44.800007 -23.214088 1.7603307 0
45.007763 -22.967773 1.7628434 0
-4.0234718 -20.663847 1.8375916 0
-3.9262195 -20.686577 1.8379403 0
17.405437 -19.567276 1.8278986 0
17.454536 -19.443085 1.8237132 0
17.653517 -19.11817 1.816319 0
40.286316 -19.253462 1.5575646 0
44.487797 -19.181055 1.6901128 0
44.624504 -19.075422 1.6930444 0
-4.3312469 -18.671049 1.6726931 0
17.374849 -18.819588 1.7877189 0
44.86311 -18.030281 1.6867623 0
31.209946 -17.638575 1.876279 0
31.509821 -17.719954 1.8920496 0
44.822983 -17.850773 1.683133 0
5.356421 -17.321787 1.5820509 0
5.8427787 -17.092062 1.8029588 0
19.860876 -17.165102 1.83227 0
20.018692 -17.228849 1.8435241 0
26.308451 -17.143183 1.6431397 0
31.385958 -17.210318 1.873418 0
31.696157 -17.074978 1.8843037 0
32.159122 -17.064482 1.9054475 0
44.826973 -17.292751 1.6761529 0
4.7137198 -16.515583 1.8001194 0
5.379971 -16.822378 1.6737642 0
5.7309484 -16.929016 1.6286676 0
6.0414805 -16.92577 1.5681062 0
19.965446 -16.965719 1.8287358 0
20.1614 -16.813086 1.8323629 0
20.780243 -16.736595 1.8624512 0
21.34794 -16.661049 1.8902609 0
26.373119 -16.955242 1.6406274 0
26.726498 -16.830873 1.6527694 0
27.144016 -16.743059 1.668889 0
4.8855138 -16.448578 1.7984123 0
5.0802832 -16.357187 1.795172 0
8.1087761 -16.347275 1.5922774 0
11.479894 -16.450033 1.7507845 0
11.693647 -16.26626 1.7485187 0
17.337576 -16.38736 1.6648545 0
17.536819 -16.31691 1.6716441 0
11.84893 -15.953519 1.7343993 0
19.238918 -14.635644 1.6869905 0
24.084103 -14.809755 1.9736898 0
28.735374 -14.736365 1.6899279 0
34.217056 -14.628802 1.947735 0
6.976603 -14.187178 1.9352852 0
7.0788555 -14.11412 1.9328477 0
13.493919 -14.090652 1.7026747 0
13.54088 -14.051063 1.7030231 0
19.408682 -14.432167 1.6879206 0
28.743944 -14.406233 1.6824963 0
34.495148 -14.495028 1.9584113 0
34.566345 -14.33996 1.9587255 0
13.444394 -13.861677 1.6852435 0
13.635019 -13.801949 1.6931919 0
-3.3991945 -10.586541 1.6218003 0
5.4413152 -10.647149 1.8861824 0
5.2538996 -10.116598 1.6972685 0
11.316089 -10.228761 1.7171973 0
11.741527 -10.231685 1.7500308 0
26.314821 -10.063404 1.966714 0
33.98452 -10.022449 1.8543677 0
5.1799383 -9.6956577 1.6432402 0
5.7819691 -9.621459 1.5890216 0
6.0674839 -9.582715 1.5872692 0
6.6337085 -9.5094824 1.6227584 0
16.635038 -9.5638056 1.6745523 0
26.35704 -9.8443222 1.9640632 0
34.175434 -9.9030724 1.862218 0
5.2538013 -9.2816935 1.7230709 0
5.6530323 -9.2833843 1.6652642 0
6.2571669 -9.2631855 1.7439474 0
16.741987 -9.3847294 1.6749591 0
5.44239 -8.9043798 1.7941059 0
5.7040591 -8.8938761 1.7667743 0
-4.3055305 -8.3483562 1.8165015 0
8.8411055 -7.0839357 1.98914 0
13.991249 -7.1547284 1.9235857 0
14.05225 -7.0494623 1.9244387 0
8.8978701 -6.7746286 1.8303457 0
9.0468121 -6.611166 1.7321126 0
14.147354 -6.9255943 1.6505044 0
18.991224 -6.7028837 1.7577569 0
19.058922 -6.6820831 1.762754 0
33.436325 -6.7120447 1.7847607 0
33.511806 -6.5678139 1.7871681 0
36.933887 -6.6620297 1.964343 0
8.9991741 -6.3585415 1.9344406 0
9.1384802 -6.3460774 1.7536149 0
9.5126696 -6.3693271 1.6021607 0
13.714912 -6.106019 1.7313095 0
23.396917 -6.3411007 1.691734 0
23.618408 -6.1655846 1.703546 0
28.654999 -6.4039569 1.5362697 0
29.073153 -6.3538632 1.5570993 0
33.722591 -6.4455442 1.7967981 0
36.988716 -6.4372311 1.9651105 0
37.250832 -6.2420015 1.9769385 0
37.713413 -6.0763154 1.9994428 0
13.868763 -5.9068899 1.5793204 0
23.24597 -5.8457389 1.6727602 0
23.535177 -5.9878631 1.6948032 0
-4.2967844 -4.836863 1.6249161 0
33.343555 -3.6814129 1.7555574 0
33.696022 -3.617976 1.7735609 0
44.332172 -3.1651945 1.5503752 0
5.7693915 -2.5842378 1.5750524 0
6.0588512 -2.5067449 1.502673 0
44.331173 -2.8227272 1.5495377 0
5.7865453 -2.1736336 1.5475121 0
6.1241217 -2.3523765 1.5735078 0
6.5863767 -2.0930579 1.6870104 0
12.317475 -2.1706729 1.751897 0
12.510423 -2.2973654 1.7808591 0
5.8844957 -1.7417035 1.5302385 0
6.1238751 -1.741618 1.5771699 0
12.278191 -1.7548989 1.7312931 0
12.527775 -1.5507619 1.9917237 0
16.984802 -1.646179 1.788482 0
21.224497 -1.6641445 1.782842 0
21.552889 -1.6437289 1.5081351 0
31.360189 -1.522314 1.6429303 0
5.9877963 -1.4354682 1.545927 0
6.0063558 -1.4166722 1.5493615 0
12.375682 -1.478876 1.6712309 0
21.170822 -1.4619215 1.8524082 0
21.679281 -1.3286439 1.8960441 0
26.706005 -1.2893436 1.8662926 0
31.326422 -1.2280166 1.640502 0
36.824566 -0.87126589 1.927917 0
44.279617 -0.773251 1.5448378 0
44.256859 -0.15675886 1.5438141 0
44.264183 0.25619936 1.5440934 0
44.252216 0.73861533 1.5438608 0
9.3744535 1.4396664 1.7204437 0
13.498774 1.3942866 1.6603479 0
13.539113 1.4669446 1.7469102 0
44.244118 1.2197306 1.5439539 0
9.3631926 1.6114322 1.8192189 0
13.478667 1.7364719 1.9032617 0
13.532705 1.6902177 1.7651722 0
14.348605 1.7971058 1.5148264 0
22.667843 1.561057 1.9836648 0
28.092695 1.775672 1.9649934 0
13.530421 2.031996 1.9161352 0
23.178743 2.1407201 1.6243492 0
5.9322491 3.9730792 1.5793581 0
6.028101 3.9207821 1.5620422 0
12.045513 3.9544196 1.7750137 0
5.2595215 4.3023577 1.6559994 0
5.7568107 4.1724162 1.6730531 0
6.0961823 4.1684413 1.8024548 0
10.92744 4.3548436 1.6464874 0
11.161792 4.2950006 1.8201549 0
11.842338 4.2110896 1.9080782 0
12.162855 4.1753254 1.724062 0
21.97514 4.4974475 1.9582152 0
-4.1558752 4.8718052 1.5845883 0
5.1841869 4.7304192 1.6649611 0
5.7137322 4.5773892 1.6363087 0
6.2194953 4.5679646 1.8167021 0
10.758536 4.7706456 1.7371628 0
11.020406 4.5869021 1.8830017 0
15.922463 4.8491411 1.7443709 0
16.098305 4.6844902 1.7571235 0
21.421322 4.8721638 1.9177749 0
21.878475 4.7776232 1.8571011 0
22.100147 4.7693176 1.5776124 0
31.092432 4.7748523 1.6460705 0
-4.2141461 5.3299723 1.557561 0
5.2699709 5.2692313 1.7677803 0
5.6039391 5.2959051 1.8982352 0
10.340519 5.2186756 1.6210883 0
10.704685 5.2126756 1.7849149 0
15.738533 5.1155171 1.7343364 0
21.816612 5.1687341 1.7616922 0
22.165136 5.1491613 1.9866281 0
5.3380003 5.5156736 1.6212955 0
10.937063 5.6176162 1.9397874 0
11.08167 5.6778049 1.7431895 0
21.869514 5.6393995 1.9717245 0
18.760735 6.6791916 1.7380598 0
19.014633 6.6481991 1.7581056 0
34.681824 6.9921999 1.8516462 0
18.878447 7.3540621 1.768365 0
29.309393 7.4227619 1.5820113 0
29.692978 7.3709617 1.6008523 0
34.326542 7.3087511 1.8367828 0
34.615204 7.1486468 1.8498667 0
12.300689 7.9726019 1.7939168 0
12.637075 7.9697552 1.8285276 0
28.13283 7.7324409 1.5265352 0
29.352211 7.6251884 1.5868262 0
34.299473 7.584373 1.8384576 0
34.576839 7.5317607 1.8520648 0
11.832258 8.0507822 1.7008536 0
12.225101 8.1094599 1.6655469 0
12.580572 8.05937 1.7628198 0
12.349272 8.6463451 1.8451018 0
-3.7074938 9.684103 1.7767053 0
-3.3850737 9.6707783 1.8151132 0
9.5626116 10.243131 1.8314036 0
16.443722 10.198013 1.6886425 0
9.5428782 10.756525 1.7047638 0
21.928635 10.859707 1.707778 0
22.024199 10.696915 1.7087547 0
9.5323057 11.248457 1.6832709 0
21.906176 11.277007 1.7195436 0
9.4987259 11.964044 1.6005398 0
9.5205603 11.74184 1.7275122 0
21.808378 11.602154 1.724008 0
9.4932022 12.269542 1.6254873 0
9.5151472 12.237512 1.8585557 0
4.3909006 12.862826 1.7833099 0
9.4812088 12.803193 1.7634902 0
9.5067043 12.632042 1.9352851 0
9.4706631 13.222721 1.7759415 0
9.5057945 13.175296 1.9889077 0
9.4307175 13.734283 1.7460436 0
29.818687 15.86786 1.7676991 0
30.078432 16.308189 1.7906225 0
29.894192 16.937511 1.7981588 0
30.112635 16.753637 1.8034273 0
4.8351336 17.356585 1.5721153 0
29.810673 17.259449 1.8027643 0
30.087685 17.419449 1.8195118 0
29.279802 17.810221 1.7935531 0
29.75975 17.727083 1.8128651 0
23.391979 18.159748 1.5494583 0
23.738998 18.151049 1.563589 0
24.116693 18.102272 1.5778242 0
6.6637893 20.053368 1.8445641 0
9.6427488 21.972889 1.6745739 0
13.706662 22.300934 1.8271015 0
14.195162 22.270271 1.8433845 0
13.444008 22.896179 1.85329 0
13.581055 22.803543 1.8525925 0
22.541927 41.295555 1.6412535 0
23.158953 41.202557 1.6488616 0
16.820423 41.833691 1.5728505 0
17.26346 41.801834 1.5776666 0
17.614388 41.731419 1.5801095 0
22.279509 41.740173 1.6505716 0
22.992298 41.659473 1.6599597 0
16.361546 42.195415 1.5787137 0
16.612503 42.069313 1.5778062 0
22.224627 42.430855 1.670988 0
-2.8514416 42.959278 1.5017952 0
-2.593365 43.039825 1.5040287 0
-2.4639809 43.059437 1.5044475 0
-3.6236458 44.4776 1.5566572 0
-3.3378761 44.33144 1.550794 0
5.9069014 46.727589 1.6430682 0
6.0541854 46.712765 1.6432079 0
13.390185 47.303543 1.7151009 0
13.703079 47.296936 1.7178928 0
14.179225 47.285767 1.7222204 0
14.738346 47.268257 1.7273506 0
15.214943 47.248516 1.7317131 0
16.759027 47.216801 1.7479529 0
17.237728 47.205929 1.7532578 0
17.713812 47.204422 1.7589811 0
18.049644 47.204189 1.7631226 0
20.927513 47.105202 1.7983011 0
21.273827 47.095886 1.8029546 0
21.800978 47.08337 1.8102136 0
22.326811 47.070911 1.8176123 0
22.775593 47.060646 1.824057 0
23.192293 47.056499 1.8303157 0
23.722849 47.052536 1.838459 0
24.273636 47.037842 1.8467417 0
11.831695 47.898418 1.7212431 0
11.307996 48.346233 1.7321783 0
11.631186 48.058495 1.7250123 0
4.8080869 48.990788 1.7173344 0
10.779679 48.806622 1.743765 0
11.038946 48.56707 1.7375761 0
4.6571846 49.037491 1.7184513 0
10.240798 49.273724 1.7557703 0
10.510906 49.048 1.7500004 0
9.8430862 49.68755 1.7671709 0
1.1270564 -127.07978 2.2174327 0
1.5105008 -127.44379 2.2238555 0
-5.389935 -122.38686 2.137501 0
-5.7354655 -121.54636 2.1231201 0
-6.1118984 -121.45994 2.1219335 0
-11.393496 -114.52527 2.0080738 0
-11.025967 -114.48088 2.0066776 0
-10.676946 -114.43362 2.0052814 0
4.2232733 -68.051689 2.3793082 0
5.4701891 -68.119232 2.3847525 0
4.4153695 -67.859215 2.3730259 0
4.6085749 -67.874428 2.3740034 0
4.866796 -67.205025 2.3513188 0
5.1831489 -67.187462 2.3515279 0
5.5979576 -67.186272 2.3526449 0
24.462172 -58.045788 2.1979704 0
24.669437 -58.027515 2.2002039 0
14.347253 -57.525883 2.0687027 0
14.9163 -57.500729 2.0727508 0
15.211643 -57.522476 2.0761013 0
20.768215 -57.802921 2.143178 0
21.283575 -57.817413 2.1498091 0
21.79327 -57.804688 2.1556022 0
22.219027 -57.845825 2.1622334 0
22.758644 -57.90765 2.1710744 0
23.27574 -57.931007 2.1784964 0
23.792892 -57.957401 2.1861508 0
24.201155 -57.934216 2.1908507 0
24.864202 -57.979126 2.2013206 0
10.285381 -57.286617 2.0308018 0
10.740932 -57.264511 2.0329189 0
11.302861 -57.311096 2.0382235 0
11.773576 -57.342209 2.0425279 0
12.241783 -57.36319 2.0465994 0
12.714247 -57.384647 2.0508342 0
13.1918 -57.412003 2.0554407 0
13.664593 -57.43499 2.0599778 0
14.618135 -57.463753 2.068912 0
-7.0500231 -35.018414 2.4944916 0
28.225668 -26.508005 2.0267971 0
28.785715 -26.533539 2.049197 0
29.160534 -26.546383 2.0641301 0
4.3136768 -25.928381 2.2954206 0
11.746212 -25.738609 2.4710398 0
20.929914 -25.847681 2.3223326 0
21.333595 -25.820019 2.3387392 0
21.538544 -25.781063 2.3457708 0
11.758773 -25.247171 2.4324586 0
21.457092 -25.212824 2.3117294 0
11.78765 -24.719645 2.3917859 0
21.486818 -24.93535 2.2983363 0
11.863249 -22.932911 2.2547193 0
-3.9030755 -20.699545 2.2088954 0
17.219364 -20.298702 2.3246179 0
17.298664 -19.82349 2.2976346 0
17.576262 -19.642572 2.3018413 0
40.048943 -19.607021 2.334393 0
17.425709 -19.17119 2.2623887 0
17.532806 -19.051636 2.2609944 0
39.914062 -19.161671 2.3178549 0
17.629189 -18.976128 2.2618659 0
40.138336 -18.960493 2.3239257 0
21.083199 -17.828575 2.4114251 0
43.888943 -17.666435 2.4769561 0
15.927408 -17.315525 2.4677079 0
16.122803 -17.148746 2.4688785 0
20.287029 -17.313221 2.32915 0
20.852417 -17.465336 2.3755169 0
25.892622 -17.213339 2.1708214 0
26.281239 -17.178549 2.1921668 0
31.004683 -17.195154 2.4757967 0
43.895527 -17.277542 2.4697337 0
4.6050043 -16.641331 2.1141894 0
12.25207 -16.522423 2.1569099 0
16.271542 -16.934666 2.4633179 0
17.045164 -16.520847 2.0725634 0
20.406246 -16.767456 2.3064897 0
20.59837 -16.608538 2.3107603 0
26.26428 -16.87813 2.1797502 0
26.774567 -16.859039 2.209141 0
30.889105 -16.796713 2.4553349 0
31.212055 -16.870327 2.4776106 0
4.8622394 -16.409203 2.1631093 0
5.2383456 -16.339006 2.2694051 0
5.7397966 -16.245108 2.2469468 0
6.2227731 -16.237896 2.305342 0
11.234213 -16.16246 2.323972 0
11.674957 -16.285231 2.261065 0
12.195601 -16.297052 2.3736415 0
17.254425 -16.373875 2.1962059 0
20.836109 -16.430273 2.317297 0
21.053358 -16.283812 2.3243854 0
30.946369 -16.291439 2.442174 0
31.05969 -16.354935 2.4512424 0
24.198187 -15.040373 2.4884708 0
39.835838 -15.032402 2.2288837 0
44.291138 -15.472208 2.4562311 0
44.550922 -15.406142 2.4679544 0
19.28797 -14.632812 2.1139336 0
23.810583 -14.697518 2.4438469 0
28.726814 -14.726104 2.2539711 0
40.21928 -14.754395 2.2426586 0
6.9705677 -14.132763 2.4882464 0
7.0565805 -14.083385 2.487308 0
13.57712 -14.185781 2.4051156 0
19.257393 -14.374207 2.0981872 0
23.947248 -14.274875 2.4348991 0
28.6577 -14.245288 2.2345324 0
40.296974 -14.289326 2.2381995 0
7.058217 -13.957752 2.1914196 0
13.72314 -13.869999 2.1747499 0
28.780165 -13.930185 2.232486 0
5.6109166 -11.204062 2.4263272 0
26.265408 -10.627659 2.4747 0
5.2947769 -10.362943 2.4633377 0
10.955717 -10.143739 2.3571544 0
11.238054 -10.101539 2.2608175 0
11.834152 -10.355706 2.2033885 0
12.020847 -10.225244 2.2111821 0
16.396811 -10.126378 2.3603656 0
16.71953 -10.250151 2.0562243 0
21.488436 -10.160465 2.4932129 0
21.516638 -10.053648 2.4911222 0
26.231855 -10.236365 2.4593608 0
39.84362 -10.018299 2.150589 0
4.9388309 -9.6709843 2.1014431 0
5.1719909 -9.6603842 2.1940114 0
6.7413621 -9.6175022 2.4862671 0
11.337165 -9.7423239 2.3599703 0
11.852513 -9.8418627 2.4324515 0
16.41407 -9.8452959 2.2878482 0
16.619076 -9.6647072 2.1508193 0
21.999159 -9.6548529 2.0976644 0
22.152214 -9.5978737 2.1079488 0
22.732758 -9.7257729 2.1590221 0
26.469687 -9.9507008 2.4698195 0
26.575394 -9.8038616 2.4740028 0
34.240696 -9.6310349 2.4838884 0
39.729416 -9.7316732 2.1411688 0
5.2737532 -9.1982479 2.2183049 0
5.6365209 -9.1208429 2.3996501 0
6.0071058 -9.4052134 2.3618767 0
16.72765 -9.3277912 2.1636844 0
17.19697 -9.3396435 2.3969264 0
17.700737 -9.4762249 2.4593234 0
5.4450116 -8.9384012 2.2462857 0
5.6898856 -8.8558912 2.1792462 0
40.231693 -8.4705439 2.1521592 0
8.4578056 -7.8251929 2.3876088 0
8.525423 -7.6207895 2.265919 0
18.946278 -7.5342174 2.4975905 0
8.4500189 -7.4247589 2.3807275 0
8.684864 -7.2249188 2.2679484 0
9.2519932 -7.1678705 2.4774756 0
13.901772 -7.2233105 2.4039571 0
18.793726 -7.1790967 2.413739 0
8.470232 -6.7694454 2.2945135 0
8.8211899 -6.8545084 2.2473812 0
9.0344753 -6.694582 2.3287144 0
13.971395 -6.989089 2.4666586 0
18.799778 -6.7554188 2.2587481 0
28.580488 -6.5819969 2.047492 0
8.7822075 -6.2850232 2.2638044 0
9.1779261 -6.2686067 2.2366953 0
9.6221962 -6.4361358 2.1022184 0
13.493362 -6.2331228 2.3465171 0
13.646076 -6.1655846 2.2548356 0
23.474535 -6.2720695 2.1216033 0
23.560465 -6.1126208 2.1253216 0
28.642679 -6.2231812 2.046283 0
33.420246 -6.2908831 2.37465 0
33.649345 -6.1163502 2.3881826 0
37.784798 -6.3316708 2.0053046 0
8.8122635 -5.9687939 2.2520993 0
13.817205 -5.93929 2.260385 0
23.723169 -5.9702411 2.136013 0
28.707966 -5.8636255 2.0455389 0
33.730362 -5.9122543 2.391252 0
37.782799 -5.9710703 2.0021644 0
12.482788 -2.5585446 2.2383251 0
44.318451 -2.8465874 2.3249028 0
12.461808 -2.2743452 2.2786808 0
12.519337 -2.2717125 2.2734609 0
12.267118 -1.7534924 2.2881186 0
16.824469 -1.6595316 2.2193367 0
17.07704 -1.8758557 2.4076948 0
21.326441 -1.7351427 2.2438776 0
21.523098 -1.7505296 2.2647138 0
12.294561 -1.3994952 2.2944627 0
16.858759 -1.4022303 2.3707674 0
21.53104 -1.4156017 2.2628322 0
26.351606 -1.4507799 2.3047464 0
26.752201 -1.2236179 2.3387718 0
31.306744 -1.0904133 2.1871443 0
35.317822 -1.0683434 2.4674261 0
26.728949 -0.8064267 2.3353553 0
35.306404 -0.90378493 2.46631 0
41.451027 -0.5961954 2.170058 0
41.436718 -0.46578452 2.1692207 0
43.946445 -0.35659599 2.3006885 0
44.26712 -0.15754829 2.317436 0
44.259449 0.2572619 2.3170695 0
44.243855 0.73752087 2.316529 0
9.37537 1.3557315 2.244559 0
12.940511 1.3665507 2.2860036 0
13.164648 1.323921 2.156142 0
13.688507 1.4506321 2.1725619 0
23.544073 1.4787214 2.4743979 0
28.400026 1.4240183 2.4835901 0
34.482697 1.4215037 2.4099467 0
34.897449 1.2230721 2.4384072 0
44.240425 1.0730021 2.3167033 0
9.2496176 1.7070547 2.3192048 0
9.5077019 1.660043 2.2171175 0
13.214212 1.7347033 2.2343602 0
23.19783 1.7693371 2.2699134 0
28.330372 1.6850951 2.4787791 0
34.39201 1.6325494 2.4042733 0
23.172606 2.2445326 2.2371538 0
23.089298 2.5309308 2.0279398 0
16.28532 3.4512002 2.3328195 0
11.246957 3.9000149 2.3160763 0
11.794323 3.8195682 2.2775679 0
12.122787 3.8798268 2.1597266 0
16.209045 3.5142045 2.3241909 0
10.885803 4.3190727 2.2778406 0
11.144872 4.194078 2.2244544 0
11.747235 4.2230387 2.1926904 0
12.119049 4.0980439 2.0186303 0
16.205164 4.2833543 2.0522187 0
10.486561 4.8048844 2.0254323 0
10.69875 4.7352147 2.2457941 0
11.000311 4.5140867 2.3019197 0
15.404516 4.9477282 2.2671299 0
15.96838 4.973176 2.0476487 0
16.164379 4.7296114 2.226428 0
21.358295 4.8795257 2.2976401 0
21.704979 4.6406374 2.3278072 0
30.904072 4.8980398 2.1846333 0
31.123302 4.7344427 2.1980264 0
10.621968 5.1281118 2.2581725 0
15.705647 5.1063609 2.0218937 0
21.732382 5.2145476 2.3439462 0
25.806744 5.0688334 2.2967281 0
26.224066 5.2790737 2.3361225 0
10.929751 5.5099611 2.1497645 0
21.913202 5.7281818 2.3755138 0
41.781303 5.8167648 2.2082634 0
18.538713 6.7658067 2.0691857 0
24.252357 6.6974349 2.1970222 0
18.463673 7.1963439 2.0777473 0
18.515909 7.05165 2.0773988 0
28.304115 7.4524312 2.0433066 0
28.919064 7.2803655 2.0819516 0
29.230145 7.3592067 2.1044133 0
29.52297 7.1398182 2.1205969 0
12.261683 7.9801579 2.2229319 0
28.211767 7.7123704 2.0417998 0
28.929541 7.5212736 2.0868347 0
11.954511 8.1136885 2.0237625 0
12.141825 8.0565948 2.1709652 0
12.531672 8.0649385 2.2200127 0
-3.7181156 9.6786222 2.1057811 0
-3.4591043 9.6800528 2.1747563 0
9.5637331 9.9048042 2.4192665 0
16.743347 9.8566751 2.3797023 0
9.5517235 10.240252 2.335536 0
16.733768 10.268909 2.3271351 0
17.11631 10.434197 2.4554236 0
21.749115 10.465428 2.1074259 0
22.016495 10.442061 2.127646 0
9.5385008 10.769083 2.185395 0
16.799921 10.529966 2.078862 0
21.77132 10.809775 2.1224167 0
9.5278921 11.25267 2.1967545 0
21.861237 11.32375 2.1497834 0
9.4967299 11.877227 2.1304619 0
9.5198507 11.706778 2.2851286 0
21.616264 11.582688 2.1413584 0
9.4912739 12.243472 2.1704643 0
9.5147581 12.233453 2.4470522 0
4.3950195 12.858338 2.2661111 0
9.4774637 12.74544 2.2254708 0
9.5038366 12.577228 2.4891853 0
9.4618349 13.257091 2.2097812 0
9.4568348 13.7169 2.1873317 0
39.817738 14.247622 2.2138109 0
29.830431 16.335691 2.3748825 0
29.84511 16.768986 2.3904846 0
29.838474 17.255997 2.4069474 0
29.199875 17.871099 2.3905544 0
29.729942 17.50375 2.4091096 0
23.761665 18.160934 2.0879507 0
6.6105828 20.067202 2.2155852 0
14.448752 21.956276 2.2953336 0
14.609145 21.831718 2.2940264 0
13.941063 22.379074 2.3025386 0
14.300891 22.25795 2.3104403 0
13.416953 22.780447 2.3088138 0
13.718285 22.644489 2.3121371 0
22.371109 40.851974 2.4384367 0
22.717957 40.731853 2.4417341 0
23.230005 40.749458 2.4557076 0
23.656075 40.907867 2.4740252 0
22.348225 41.194214 2.4536142 0
16.878988 41.913078 2.3654804 0
17.268778 41.777576 2.366632 0
17.65671 41.853909 2.3781457 0
22.301931 41.722733 2.4768515 0
16.66143 42.126793 2.3716562 0
17.874723 42.017502 2.390497 0
18.135056 42.07761 2.3987665 0
16.381947 42.775711 2.3980334 0
16.570171 42.664524 2.3961494 0
-3.6743898 43.417206 2.2810104 0
-3.5597734 43.623135 2.2912681 0
-3.50741 44.717308 2.3482096 0
-3.290051 44.64365 2.3434994 0
-3.0368321 46.032829 2.4151998 0
-2.7527716 46.138729 2.4198053 0
-2.9228945 46.532509 2.440949 0
6.6884251 57.963924 2.035897 0
5.9203267 58.429199 2.0491588 0
6.2481122 58.109406 2.0392473 0
6.978673 58.018345 2.0389681 0
7.1565509 58.057087 2.0410621 0
10.369495 61.266964 2.1682358 0
10.634897 61.14225 2.1655138 0
10.123884 61.567245 2.1771703 0
10.293903 66.434326 2.3459444 0
10.552068 66.110535 2.3361721 0
3.7954602 -76.775558 2.6826546 0
4.0364146 -76.759262 2.6825149 0
8.1854649 -72.350143 2.5409625 0
8.7620697 -72.361626 2.5437078 0
13.376277 -51.704678 2.7964151 0
13.729027 -51.720795 2.8019276 0
-7.2820301 -35.313164 2.5179296 0
-6.9725924 -35.204773 2.5062108 0
20.336496 -26.294619 2.9040296 0
20.739912 -26.30146 2.9262249 0
21.201994 -26.296427 2.9510932 0
21.922966 -26.342178 2.9941483 0
4.3613758 -25.935303 2.7591331 0
4.5242581 -25.951889 2.7637327 0
11.779488 -25.62307 2.9589915 0
21.357452 -25.985115 2.9385428 0
11.823059 -25.194853 2.9201071 0
11.842237 -24.736792 2.8774595 0
11.856322 -24.279215 2.8348119 0
11.886397 -23.777748 2.7889588 0
-4.0308509 -20.660889 2.5787554 0
-3.9199493 -20.690622 2.8036628 0
16.925726 -19.408123 2.7015731 0
17.158081 -19.16136 2.6983395 0
17.196306 -18.990391 2.6876359 0
4.8010721 -17.659773 2.5652385 0
4.3833256 -17.271296 2.7689624 0
4.6560278 -17.13096 2.7083104 0
15.690913 -17.27544 2.8596642 0
26.368183 -17.137836 2.747149 0
26.538624 -17.251617 2.7651031 0
4.8075371 -16.590904 2.7282171 0
6.1566072 -16.78858 2.8245807 0
12.282532 -16.604286 2.5300076 0
17.314028 -16.740553 2.8089387 0
17.56806 -16.774845 2.547986 0
19.843065 -16.561111 2.7114685 0
20.421333 -16.565746 2.7587152 0
26.68325 -16.934736 2.7607453 0
4.9191723 -16.40139 2.7044387 0
5.2588553 -16.327467 2.709306 0
5.7454376 -16.358059 2.7384636 0
11.297086 -16.050621 2.7517307 0
12.347874 -16.223743 2.858685 0
12.773029 -16.415253 2.5479467 0
16.390656 -16.247885 2.8278563 0
16.518744 -16.225512 2.8371181 0
17.435852 -16.283344 2.5024114 0
19.923943 -16.469921 2.7118864 0
20.250917 -16.424969 2.7355099 0
20.735847 -16.449085 2.7768335 0
11.426641 -15.968339 2.7528441 0
11.627389 -15.880418 2.7593851 0
12.495317 -15.94977 2.8408015 0
39.831467 -15.665932 2.9896231 0
19.298223 -15.073684 2.5686824 0
19.719236 -15.157127 2.6090302 0
28.438438 -15.160686 2.8153048 0
28.564276 -15.055253 2.8207083 0
19.255362 -14.739758 2.5436652 0
28.475384 -14.78677 2.8029287 0
28.593597 -14.771722 2.8115282 0
6.9289303 -14.04072 2.7523236 0
7.0573406 -14.024369 2.7598484 0
13.38121 -14.196312 2.7350297 0
13.586013 -14.059716 2.7410145 0
28.458931 -14.386253 2.7856717 0
28.567101 -14.219488 2.7875891 0
33.99012 -14.228033 2.5733166 0
34.045761 -14.25106 2.5775018 0
34.522316 -14.138062 2.6052647 0
7.1644354 -13.964097 2.7589221 0
13.665663 -13.752253 2.7179947 0
5.5536504 -11.259508 2.6583588 0
21.385675 -11.05438 2.5251985 0
4.9198518 -10.773132 2.8912139 0
5.2171798 -10.739154 2.8080845 0
10.947653 -10.663877 2.9613557 0
11.080073 -10.570801 2.8756273 0
21.442047 -10.872884 2.5217841 0
26.246885 -10.615744 2.9706988 0
4.8916283 -10.455639 2.9087567 0
5.2947569 -10.322462 2.8427787 0
5.6380954 -10.141456 2.8586814 0
10.857523 -10.060458 2.8678594 0
11.110692 -10.295001 2.7713997 0
16.391933 -10.057809 2.6960614 0
16.554728 -10.246264 2.7294626 0
21.450462 -10.065278 2.9034152 0
21.754675 -10.041944 2.6530573 0
26.140202 -10.242101 2.9457793 0
34.662964 -10.098746 2.5212781 0
5.4707489 -9.7326193 2.5665417 0
5.7398472 -9.8046885 2.7503195 0
6.4208946 -9.5507746 2.6458745 0
6.9634118 -9.5284119 2.9741068 0
7.0196872 -9.5111561 2.979013 0
10.942722 -9.8891268 2.724802 0
11.328849 -9.8379364 2.6999459 0
11.851201 -9.9006605 2.7144682 0
16.438801 -9.8077431 2.6835356 0
16.629429 -9.7145128 2.6999581 0
21.745913 -9.7559643 2.9207206 0
22.190022 -9.5430889 2.9599626 0
34.575836 -9.8969173 2.5115123 0
5.3714495 -9.2386122 2.6819851 0
5.7495694 -9.2113285 2.6261275 0
6.2368755 -9.193265 2.7433534 0
6.6508136 -9.279314 2.7149127 0
7.090065 -9.4845953 2.984246 0
16.615576 -9.2589664 2.6665568 0
17.290306 -9.3228207 2.7539573 0
17.609295 -9.4237423 2.8001628 0
5.4172292 -8.9152784 2.6275926 0
5.6700883 -8.9043589 2.6364057 0
6.1984386 -8.9392366 2.7404106 0
6.5430474 -8.9782991 2.7579098 0
8.2376862 -7.5858512 2.7107129 0
13.837 -7.7162385 2.7851431 0
18.845776 -7.6274261 2.8505435 0
8.4059353 -7.2679534 2.7214735 0
8.5890207 -7.2136674 2.6658623 0
9.1076326 -7.0133476 2.642725 0
13.889712 -7.2993741 2.7583144 0
14.021101 -7.0915852 2.7620478 0
18.722904 -7.2739463 2.8162274 0
8.3856831 -6.7463756 2.695297 0
8.7084589 -6.7291827 2.6647489 0
9.1259069 -6.6518931 2.8036816 0
18.706873 -6.8088231 2.7910964 0
23.329819 -6.6918631 2.7601159 0
28.586992 -6.679646 2.564209 0
8.8233566 -6.2001858 2.6592457 0
9.078249 -6.2185826 2.5849414 0
13.290856 -6.1723623 2.7445335 0
13.727083 -6.1082225 2.6945264 0
14.10375 -6.0480084 2.9735672 0
23.22436 -6.2348113 2.768636 0
23.565441 -6.0447931 2.5519581 0
27.891747 -6.0257416 2.9941134 0
28.328419 -6.2033439 2.5329552 0
33.625774 -6.1836281 2.9870017 0
37.711811 -6.1308546 2.6683245 0
8.8311529 -5.9730086 2.6856253 0
9.1526194 -5.8417664 2.7136621 0
13.386623 -5.9631863 2.8392379 0
13.820602 -5.8252101 2.7880485 0
23.216881 -5.8909388 2.9351015 0
23.778902 -5.9882941 2.5722363 0
27.862339 -5.7477846 2.9850819 0
28.446671 -5.8598685 2.536813 0
28.864166 -5.7118816 2.5700486 0
29.101398 -5.6200752 2.5888743 0
33.468597 -5.6747336 2.9657354 0
33.62009 -5.7903495 2.9804938 0
37.849632 -5.9772086 2.6761372 0
27.930368 -5.4001298 2.9849148 0
12.177853 -2.1431921 2.7509353 0
36.949471 -2.2492142 2.585175 0
37.107689 -2.4335938 2.5970335 0
11.946659 -1.7520503 2.8871963 0
12.210462 -1.7363329 2.6646311 0
12.52652 -1.5859528 2.9039681 0
16.813795 -1.6292918 2.8032405 0
21.102474 -1.6569629 2.5931358 0
26.386 -1.5718077 2.7731402 0
12.129029 -1.4352045 2.5858672 0
12.518667 -1.4797844 2.899169 0
16.703875 -1.2830946 2.8143933 0
17.049339 -1.0828089 2.6981816 0
26.398529 -1.2846597 2.7728474 0
26.644978 -1.0465497 2.7975996 0
16.878677 -0.90440369 2.9110985 0
17.002167 -0.94624448 2.6894212 0
26.732841 -0.77430224 2.8058922 0
36.375481 -0.53533185 2.5405307 0
36.727642 -0.7105509 2.5653644 0
26.573467 -0.35592377 2.7881923 0
36.744652 -0.36651611 2.5662012 0
13.800147 0.9406597 2.9298916 0
14.331064 0.97500312 2.7827582 0
23.599264 0.91797662 2.8939095 0
12.961009 1.3689828 2.5240214 0
13.235397 1.3962771 2.6584928 0
13.745347 1.2309592 2.8039057 0
14.303571 1.1420215 2.5734258 0
23.443138 1.350718 2.8773351 0
23.598625 1.102057 2.894803 0
13.37128 1.6904223 2.7330177 0
13.64535 1.7380295 2.7266941 0
22.793039 1.846916 2.8019223 0
23.445938 1.5337217 2.8790412 0
33.877487 1.5898438 2.9629464 0
13.047591 2.4409707 2.8112431 0
22.811472 2.1335969 2.8072197 0
23.146671 2.3115535 2.85028 0
13.020581 2.5609725 2.8104117 0
16.461777 3.4386921 2.6559443 0
16.541697 3.2935572 2.6637661 0
11.219025 3.8308303 2.6817548 0
11.848489 3.7476637 2.7581739 0
12.14796 3.7486644 2.6920407 0
16.286694 3.6661186 2.6365464 0
10.497332 4.4517608 2.87304 0
10.823687 4.3165936 2.8299994 0
11.117222 4.1611271 2.7779174 0
16.417511 4.3593898 2.6827884 0
21.259455 4.4459572 2.6608953 0
21.900467 4.4732451 2.7386479 0
30.755543 4.3216429 2.7129841 0
31.04567 4.3606339 2.7386076 0
35.909973 4.2100658 2.5249052 0
10.471331 4.6143198 2.883343 0
10.6633 4.7326822 2.8137438 0
11.092215 4.5247059 2.5361071 0
16.285082 4.6777992 2.6760461 0
21.252773 4.7551379 2.6681726 0
30.803455 4.6688871 2.7215252 0
31.036106 4.5544505 2.7401767 0
10.62783 5.1154647 2.8942256 0
21.421501 5.1037707 2.6979434 0
21.846243 5.2988515 2.7542472 0
24.199888 6.7290649 2.6349535 0
23.572433 7.945137 2.6094487 0
23.548756 8.0150442 2.6094487 0
24.058315 8.2707291 2.6688206 0
9.5718613 9.9261312 2.733592 0
16.783915 9.7987223 2.7246382 0
9.5363598 10.232219 2.8436654 0
16.411411 10.242519 2.7120662 0
9.5250607 10.759267 2.6729295 0
21.659477 10.800695 2.5387874 0
9.4989176 11.427151 2.6116686 0
9.5142584 11.23261 2.7196755 0
21.397026 11.242874 2.9619124 0
21.858326 11.368701 2.5845289 0
22.006556 11.146572 2.5877066 0
9.4917393 11.749363 2.6548493 0
9.5088167 11.720385 2.9243929 0
21.437262 11.73331 2.994736 0
21.628407 11.701287 2.6412807 0
9.4837675 12.214151 2.7529485 0
9.5009098 12.048487 2.9731855 0
21.662643 12.119189 2.6038737 0
4.3894248 12.855721 2.7405698 0
9.4756374 12.794065 2.6948831 0
9.4604254 13.245313 2.7026141 0
9.4392138 13.748788 2.7943091 0
9.4204807 14.01428 2.6668949 0
25.877239 15.346004 2.6279199 0
26.21023 15.327428 2.6522074 0
26.699158 15.27802 2.6870697 0
27.112427 15.23872 2.7168188 0
6.6436925 20.05352 2.7750196 0
13.348658 21.852915 2.6863816 0
13.77629 21.948318 2.7185764 0
14.247011 21.681107 2.7217419 0
13.196077 22.218311 2.71105 0
13.630778 22.259726 2.7383668 0
14.207078 22.34441 2.7779484 0
13.479066 22.531773 2.754534 0
13.240391 23.186148 2.8012931 0
22.586082 42.736614 2.5307574 0
23.363306 46.992825 2.7478468 0
23.727171 46.99052 2.7562904 0
24.272657 46.972027 2.7684326 0
24.628992 46.956341 2.7763178 0
13.405765 47.260239 2.5719984 0
13.723889 47.27129 2.577162 0
14.25124 47.256054 2.584245 0
14.803378 47.247303 2.5923045 0
15.284436 47.229656 2.5990734 0
16.740761 47.179993 2.6211243 0
17.233725 47.177975 2.629777 0
17.728697 47.159256 2.6378717 0
20.907122 47.080078 2.6971858 0
21.249346 47.068172 2.7039547 0
21.773727 47.050999 2.7145615 0
22.299227 47.031269 2.7253077 0
22.73889 47.01424 2.7344489 0
23.09761 47.008224 2.742404 0
11.912321 47.897301 2.5841401 0
4.6188488 48.409569 2.5460396 0
11.386108 48.349377 2.6006784 0
11.65205 48.125702 2.592514 0
10.790437 48.867565 2.6202171 0
11.124239 48.584473 2.6095757 0
10.253638 49.354321 2.6392672 0
10.525755 49.111988 2.629777 0
9.927597 49.70282 2.6537471 0
6.6015477 71.853569 2.5180686 0
6.393827 72.077026 2.525188 0
11.002954 76.4655 2.6960559 0
11.253975 76.582504 2.7013607 0
-1.6048017 -62.569733 3.2776961 0
-1.2180763 -62.575603 3.2775567 0
-0.72969049 -62.571999 3.2769637 0
-0.2458421 -62.557663 3.2760212 0
0.24099264 -62.531845 3.2746606 0
0.72572881 -62.540634 3.2753239 0
1.211905 -62.50259 3.2737188 0
1.8886362 -62.501862 3.2745562 0
2.2820234 -62.508724 3.2756028 0
1.5991405 -62.493885 3.2737186 0
2.0843227 -62.475658 3.2735095 0
-8.1252842 -61.891464 3.2689037 0
-7.8369989 -61.922516 3.2685897 0
-7.1514773 -61.910999 3.26367 0
-6.7622647 -61.86076 3.2587852 0
20.936829 -57.520279 3.2054725 0
21.250786 -57.549759 3.2125902 0
21.769539 -57.577515 3.2234764 0
22.316788 -57.652691 3.2373977 0
22.713604 -57.626343 3.2436776 0
23.256647 -57.682781 3.2569714 0
23.797115 -57.719223 3.2694273 0
24.233734 -57.760418 3.2802081 0
24.644026 -57.729923 3.2871168 0
11.787978 -57.014446 3.0486739 0
12.254358 -57.032417 3.0546403 0
12.720599 -57.041294 3.0603275 0
13.289124 -57.081074 3.0689805 0
14.219646 -57.150074 3.0839138 0
14.601333 -57.143284 3.0884495 0
9.9228039 -56.845463 3.0216687 0
10.286903 -56.863049 3.0259254 0
10.758138 -56.926998 3.0337057 0
11.223559 -56.966568 3.04037 0
11.78199 -56.984806 3.0471041 0
22.835497 -52.81604 3.0130856 0
23.183172 -52.715073 3.015528 0
23.699675 -52.766857 3.028996 0
7.1795559 -29.841793 3.2209401 0
0.28827214 -26.019489 3.1890769 0
11.828141 -26.046995 3.0016396 0
20.300753 -26.236715 3.4816341 0
-0.8405363 -25.931953 3.1798151 0
0.12706335 -25.98893 3.1851771 0
4.3051414 -25.939043 3.2225909 0
11.728609 -25.726761 3.4657202 0
11.749454 -25.25305 3.4139664 0
11.778671 -24.724426 3.3567688 0
-4.0400119 -20.667078 3.3276742 0
-3.912955 -20.694124 3.3280909 0
16.696669 -19.087847 3.1079121 0
4.478097 -17.343767 3.1499779 0
4.6877604 -17.109213 3.1554613 0
20.302372 -17.181429 3.2597611 0
25.889 -17.166416 3.2598245 0
26.23637 -17.104923 3.2867928 0
26.662155 -17.091324 3.3235869 0
4.9542365 -16.82715 3.0845473 0
5.3055849 -16.583267 3.2970574 0
5.7241759 -16.559929 3.3965092 0
17.077507 -16.614983 3.3418245 0
20.11488 -16.700161 3.2041888 0
26.056503 -16.987759 3.264215 0
5.2639647 -16.471943 3.0797572 0
5.7342787 -16.412092 3.0570571 0
11.396749 -16.070591 3.2640996 0
11.7952 -16.113831 3.1552832 0
12.094321 -16.046938 3.1749938 0
20.145374 -16.359959 3.180546 0
11.654881 -15.878168 3.3941319 0
12.119964 -15.633324 3.3912847 0
12.692592 -15.91127 3.2160842 0
19.387686 -15.32785 3.4667091 0
28.302717 -15.025569 3.3628898 0
19.159105 -14.930775 3.4069574 0
28.211632 -14.81031 3.3438654 0
12.965729 -14.20178 3.3823192 0
13.265536 -14.163714 3.2097416 0
13.586361 -14.05897 3.2058194 0
33.88765 -14.255202 3.2122121 0
34.03701 -14.135414 3.2202303 0
13.347178 -13.952171 3.3960953 0
13.633503 -13.779461 3.0625699 0
19.957172 -13.196214 3.3557417 0
20.03372 -13.159244 3.3618655 0
4.9010086 -10.868919 3.00477 0
10.833676 -10.615516 3.4906404 0
16.344099 -10.600047 3.077796 0
21.295879 -10.685705 3.3418243 0
26.13133 -10.816154 3.4666138 0
5.9333496 -10.487845 3.0369055 0
10.929635 -10.339876 3.3522027 0
16.309446 -10.333123 3.2511642 0
16.573195 -10.172855 3.0723727 0
21.248573 -10.259136 3.309397 0
21.5252 -10.188215 3.3401544 0
34.343567 -10.084532 3.1273224 0
10.990129 -9.9687214 3.1436248 0
11.059898 -9.9087839 3.1461198 0
16.247833 -9.7584105 3.2482951 0
16.588436 -9.9728699 3.057981 0
22.720078 -9.6057301 3.0228472 0
33.954105 -9.5721149 3.0821755 0
34.126286 -9.6944361 3.0996068 0
34.301704 -9.4379578 3.1083221 0
13.758047 -7.7119808 3.1631582 0
18.586712 -7.500145 3.1668596 0
13.838768 -7.3541927 3.1552162 0
18.618881 -7.2119222 3.154892 0
18.73414 -6.8579936 3.1521544 0
22.959223 -6.6264625 3.3516595 0
28.560955 -6.6840229 3.077945 0
13.254919 -6.1704059 3.1791892 0
13.779568 -6.0397024 3.1877019 0
22.932589 -6.2342615 3.3332353 0
27.88707 -6.1171374 3.4996002 0
28.150646 -6.219738 3.0250537 0
28.51771 -6.4379272 3.0677011 0
13.407771 -5.9519467 3.1078639 0
13.727059 -5.7397137 3.1978366 0
22.971777 -5.9404044 3.3279073 0
23.160782 -5.8403802 3.3501749 0
27.602938 -5.7413106 3.4558895 0
13.849117 -5.4144778 3.150486 0
27.72122 -5.4523506 3.4630394 0
28.757681 -5.1905146 3.0663636 0
34.391636 -4.1397552 3.026396 0
34.306187 -3.8032763 3.0155888 0
12.251869 -2.2571855 3.1164188 0
12.235352 -1.728807 3.0982735 0
16.064978 -1.6002928 3.4213946 0
17.342592 -1.5577908 3.3752842 0
26.147179 -1.6152272 3.2106884 0
12.577358 -1.4721503 3.1687415 0
16.753191 -1.1994094 3.2555287 0
17.374264 -1.4506844 3.3796089 0
26.228491 -1.2501858 3.2182443 0
16.43458 -0.86615431 3.4879265 0
16.889286 -0.92053586 3.2784801 0
26.736631 -0.85952514 3.278651 0
36.37952 -0.65050447 3.1790926 0
36.775837 -0.54214406 3.2136066 0
26.712992 -0.23504134 3.2741904 0
36.769756 -0.25570926 3.212822 0
44.268032 -0.10527834 3.092165 0
44.256279 0.2390081 3.0913978 0
13.381929 0.90563458 3.0854287 0
13.775858 0.91655809 3.3299763 0
14.182813 0.69013751 3.1288905 0
23.640589 0.96047997 3.3184433 0
44.246861 0.79066747 3.0911884 0
13.4266 1.3159546 3.3517473 0
13.694678 1.202047 3.2380478 0
23.359514 1.2765789 3.2811451 0
23.582148 1.0301617 3.3106496 0
34.822311 1.4186542 3.044873 0
44.237705 1.1325618 3.091049 0
13.383131 1.6131918 3.348973 0
13.534758 1.5312538 3.1335683 0
22.784632 1.8006463 3.2054348 0
23.193872 1.5580175 3.2602692 0
34.36393 1.5063974 3.0051301 0
22.909981 2.0615978 3.2260323 0
