# .PCD v0.7 - Point Cloud Data file format
VERSION 0.7
FIELDS x y z intensity
SIZE 4 4 4 4
TYPE F F F F
COUNT 1 1 1 1
WIDTH 1465
HEIGHT 1
VIEWPOINT 0 0 0 1 0 0 0
POINTS 1465
DATA ascii
13.251055 -51.031773 0.91946256 0
23.083761 -51.064445 0.97733474 0
18.252188 -50.654125 0.938986 0
18.800169 -50.520428 0.94007969 0
23.270025 -50.627716 0.97175002 0
23.731911 -50.594158 0.97461224 0
24.029873 -50.617256 0.97719514 0
13.342807 -50.41021 0.90937507 0
13.680745 -50.40451 0.91080618 0
18.082642 -50.49165 0.93530935 0
26.407541 -46.063362 0.92595488 0
26.451794 -45.640778 0.9199512 0
26.659338 -45.195007 0.91506457 0
27.120415 -45.018116 0.91653055 0
17.337549 -44.870251 0.83880919 0
17.8025 -44.826996 0.84106636 0
18.091536 -44.741482 0.841555 0
26.905928 -44.964962 0.91380793 0
27.313858 -44.999294 0.91799664 0
16.920403 -24.422905 0.51777798 0
9.3824339 -23.005331 0.86592633 0
9.4546566 -22.975744 0.86592633 0
9.52526 -22.942234 0.86578673 0
-2.1452761 -20.645235 0.72315252 0
-1.9813608 -20.624586 0.72186118 0
-2.2894332 -20.484064 0.71809202 0
6.4342957 -19.248808 0.70706385 0
6.5909972 -19.219006 0.70783162 0
29.743071 -19.009212 0.61530203 0
30.251919 -19.005764 0.62277168 0
13.91601 -18.755741 0.81388414 0
30.450569 -18.997465 0.62563384 0
30.656267 -18.992323 0.6286357 0
13.918557 -18.218767 0.79895413 0
-2.735189 -17.543905 0.92802119 0
13.918621 -17.757488 0.7862159 0
-2.7154884 -17.278763 0.76132137 0
13.91865 -17.254818 0.77247941 0
-2.7177613 -16.78875 0.74014068 0
-2.1917067 -16.781954 0.58933616 0
13.917547 -16.720333 0.75801706 0
-2.7326028 -16.235477 0.71656948 0
13.91224 -16.255411 0.74548817 0
43.470432 -16.343035 0.80979168 0
43.500263 -16.20628 0.80944264 0
-2.7497318 -15.742984 0.69542372 0
13.922073 -15.763286 0.73274988 0
-2.7633157 -15.2657 0.67501062 0
-2.7737615 -14.764911 0.62794358 0
-2.7947509 -14.240356 0.7069484 0
-2.0871923 -14.241886 0.66824454 0
-1.9724722 -14.26417 0.62669945 0
46.428818 -14.239226 0.84683734 0
-2.8035531 -13.736636 0.82914317 0
-2.827354 -13.306641 0.80553168 0
-2.8274462 -12.777453 0.79762381 0
19.552353 -12.528665 0.80924952 0
-2.840874 -12.258926 0.78233927 0
19.740263 -12.354657 0.81155282 0
20.1227 -12.168181 0.81950998 0
30.685534 -12.138266 0.57516146 0
31.082508 -12.073462 0.5812 0
46.15337 -12.38731 0.83328259 0
46.667664 -12.297687 0.841555 0
-2.8533595 -11.723857 0.71996498 0
20.198318 -11.830721 0.81575477 0
20.725471 -11.841124 0.83186442 0
-2.8613963 -11.21688 0.75531173 0
10.433132 -11.165367 0.79833269 0
-2.8713164 -10.776096 0.71192986 0
6.7844129 -10.779929 0.78140515 0
7.3831315 -10.583513 0.67377311 0
7.6114783 -10.546481 0.6791113 0
-2.8770535 -10.237276 0.70272857 0
6.841372 -10.275851 0.75081772 0
7.0118389 -10.289049 0.65001255 0
7.6777477 -10.411873 0.78857726 0
9.2930222 -10.387492 0.7279408 0
10.548244 -10.24873 0.51190579 0
28.225176 -10.112809 0.52250177 0
-2.8953094 -9.7375927 0.68301922 0
6.8885522 -9.8790092 0.83882165 0
7.1556077 -9.7368879 0.8416118 0
9.8706722 -9.9643345 0.73253596 0
10.234142 -9.8307142 0.83221555 0
10.54707 -9.7037201 0.99881965 0
13.455896 -9.5381765 0.86186856 0
13.790272 -9.520113 0.87568521 0
23.169701 -9.5766859 0.87381363 0
28.309814 -9.845006 0.52233887 0
33.400585 -9.7466822 0.60648859 0
33.537212 -9.5075846 0.60762304 0
46.305408 -9.7631121 0.82519627 0
46.561962 -9.5184212 0.82871008 0
-2.9136543 -9.3005323 0.65016013 0
11.447424 -9.0970039 0.70006067 0
11.638841 -9.0844221 0.51390672 0
13.479429 -9.4597282 0.86050785 0
13.662151 -9.4313545 0.86752081 0
23.210983 -9.2158079 0.87043333 0
33.633709 -9.4157677 0.60880971 0
46.552197 -9.2147255 0.82750005 0
-2.9238701 -8.7879152 0.64427078 0
9.823082 -8.7273808 0.68615919 0
10.660139 -8.7863674 0.96263933 0
11.848946 -8.7051125 0.76803011 0
46.538864 -8.9143524 0.82626677 0
-2.9371419 -8.0250702 0.74343848 0
-2.9712167 -7.4535661 0.86701822 0
9.2838116 -7.1674185 0.70608544 0
20.968363 -7.0400887 0.77072048 0
25.825451 -7.0930691 0.9335615 0
30.652466 -7.1095695 0.54840696 0
48.933285 -7.2031684 0.86249787 0
49.255527 -7.2505412 0.86818743 0
15.32284 -6.6855426 0.68832761 0
25.839756 -6.9258561 0.93251455 0
30.639038 -6.7569642 0.54681873 0
36.251152 -6.7733059 0.64287686 0
41.796719 -6.8828535 0.7385509 0
49.292942 -6.7851958 0.86768705 0
49.269379 -6.3938103 0.86637235 0
-3.0079417 -5.6218648 0.55361331 0
-2.9697161 -5.6245103 0.57982492 0
-3.0178812 -5.2954268 0.62010574 0
-2.919692 -5.3266354 0.58469456 0
-2.4289305 -5.0749383 0.68490571 0
-3.0196588 -4.8457251 0.66687369 0
-2.8945754 -4.6896725 0.56773371 0
-2.1278205 -4.6152315 0.58450347 0
-1.6937579 -4.6389971 0.77953446 0
-1.2013063 -4.6589613 0.7147947 0
-0.92104703 -4.673677 0.70550364 0
-3.0448251 -4.2189598 0.71979094 0
-2.7025208 -4.2425165 0.65584815 0
-2.1613328 -4.1703815 0.68289798 0
-1.7202045 -4.2082553 0.66839659 0
-1.298911 -4.1567006 0.6213367 0
7.3227715 -4.0721121 0.83300102 0
38.871819 -4.1821022 0.68158627 0
49.150784 -4.2918458 0.86035711 0
-3.0566237 -3.7480237 0.74453574 0
-2.5777748 -3.7850282 0.79889512 0
-2.2520883 -3.8322055 0.72795641 0
-1.6388277 -3.908087 0.79816759 0
-1.3917482 -3.9550915 0.8448211 0
7.3023338 -3.7354007 0.73350549 0
7.5878105 -3.7131197 0.58734953 0
8.1671305 -3.6924298 0.93699312 0
49.112503 -3.9188166 0.85914707 0
-3.0712125 -3.2361739 0.74982905 0
7.3845482 -3.3205383 0.80229473 0
7.7127275 -3.2759979 0.78865027 0
8.1911736 -3.2903903 0.90863234 0
12.962785 -3.3257678 0.81555998 0
-3.0819914 -2.7434957 0.74931705 0
7.8855958 -2.9116528 0.82923311 0
8.1108589 -2.8219368 0.89755106 0
23.129341 -2.7133079 0.81155288 0
27.782974 -2.6491718 0.97292817 0
-3.0950265 -2.2443779 0.76395679 0
35.745529 -2.2442324 0.62433076 0
-3.1024675 -1.7516211 0.73219061 0
-3.1150012 -1.2462103 0.69659787 0
41.736736 -1.3856251 0.72807944 0
48.973877 -1.251321 0.85428363 0
-3.1222918 -0.75497735 0.67850029 0
48.94212 -0.79212207 0.8535623 0
-3.13182 -0.24869697 0.67975825 0
45.649025 -0.097957127 0.79596931 0
48.924892 -0.41280597 0.85317838 0
-3.1461427 0.24867359 0.68237573 0
10.668287 0.26675743 0.75790757 0
45.633678 0.2527802 0.79571337 0
-3.1605744 0.75192553 0.6796205 0
10.495744 0.51123881 0.91513532 0
10.565624 0.5203445 0.73634934 0
15.220663 0.8112033 0.68991166 0
-3.175952 1.2453901 0.70976418 0
-3.1885433 1.7524717 0.7349205 0
-3.202553 2.2380264 0.77174032 0
-3.214541 2.7527344 0.74947262 0
45.693424 2.8643627 0.79830801 0
-3.2258637 3.2387521 0.75640541 0
45.702374 3.2204008 0.79887813 0
-3.2390864 3.7472427 0.73544872 0
45.683792 3.7213609 0.79921556 0
-3.2461655 4.2346134 0.75475919 0
35.855583 4.3839955 0.62968284 0
45.658012 4.2876067 0.79963434 0
-3.2568657 4.7450309 0.74631804 0
7.1716166 4.7576718 0.76569486 0
35.861389 4.6109085 0.6302762 0
45.625969 4.7165585 0.79980886 0
-3.266964 5.2445269 0.74992114 0
13.448751 5.2649765 0.65347606 0
13.53933 5.0959864 0.59804434 0
18.271282 5.4140224 0.66378844 0
22.710857 5.4939504 0.81427503 0
-3.2783682 5.7447844 0.74972993 0
22.677954 5.5614719 0.81371665 0
27.86577 5.9158144 0.99310005 0
-3.2881675 6.2373147 0.77194268 0
27.831165 6.0482168 0.9928906 0
32.489365 6.2819195 0.57676715 0
32.500103 6.1834693 0.57662755 0
38.200775 6.2210627 0.67474496 0
45.550655 6.3344512 0.80190319 0
-3.296005 6.7463479 0.71692866 0
38.196304 6.5286951 0.67554778 0
45.54546 6.7639718 0.80288047 0
-3.3036971 7.2425103 0.7621851 0
45.518063 7.0522065 0.80315977 0
-3.3091753 7.7247844 0.74698037 0
-3.3360212 8.2491446 0.77462667 0
10.440158 8.4549074 0.9360621 0
10.560791 8.3774481 0.80472416 0
18.36672 8.260766 0.70159954 0
45.448929 8.2733984 0.80551583 0
-3.3491688 8.7115803 0.80248803 0
10.362982 8.6321163 0.93975914 0
10.530415 8.5787115 0.70930928 0
15.460505 8.833149 0.80632991 0
18.349607 8.5311766 0.70496988 0
45.412678 8.9234934 0.80699933 0
-3.359622 9.2273197 0.7095837 0
29.318396 9.3439093 0.53627759 0
35.833786 9.2472219 0.64513403 0
45.389515 9.21558 0.80760431 0
-3.3814011 9.7372675 0.73014414 0
29.326405 9.5990467 0.5377785 0
45.353737 9.7246304 0.80881429 0
-3.4018686 10.241172 0.7515378 0
45.338779 10.234595 0.81046647 0
-3.4154704 10.727967 0.78420371 0
45.303684 10.665738 0.81156015 0
-3.4285181 11.220271 0.70018035 0
6.8701959 11.407351 0.798361 0
7.497242 11.450804 0.9537105 0
7.5375957 11.395567 0.95203632 0
-3.4430923 11.756485 0.74617678 0
6.2327967 11.723182 0.92513031 0
6.7729959 11.71909 0.91720128 0
7.3370848 11.629032 0.95817488 0
11.634814 11.707851 0.74262077 0
27.429668 11.889389 0.52098924 0
27.503798 11.767909 0.52133828 0
45.209835 11.95986 0.8154462 0
-3.4557993 12.285732 0.7775777 0
22.82407 12.318888 0.90403658 0
27.413139 12.081984 0.52207124 0
27.606785 12.374966 0.52723718 0
44.873184 12.467811 0.81209534 0
45.213612 12.264564 0.81688899 0
-3.468693 12.783338 0.80712408 0
20.760855 12.710378 0.84839278 0
42.826283 12.838599 0.77956414 0
44.843147 12.619799 0.81230485 0
-3.4790261 13.261427 0.85973865 0
20.830528 13.065814 0.85699201 0
42.804146 13.125237 0.78064615 0
-3.5042713 13.844785 0.99528533 0
-3.4599423 13.633963 0.79562938 0
-3.4798055 14.226698 0.76504701 0
42.726139 14.492944 0.78668469 0
-3.524462 14.802539 0.61846787 0
-3.4811878 14.707014 0.78954023 0
10.686655 14.874799 0.79766589 0
11.881912 14.966439 0.91527617 0
12.053079 14.956214 0.66909319 0
19.77833 14.784037 0.86062157 0
20.34041 14.909225 0.87900203 0
30.394325 14.983656 0.59065926 0
30.55101 14.882135 0.59233463 0
42.425842 14.763684 0.78326404 0
42.634995 14.611548 0.78584695 0
-3.5241544 15.299942 0.68394309 0
10.494681 15.45179 0.65059638 0
10.527989 15.220342 0.82432896 0
11.946135 15.011129 0.66825557 0
13.250764 15.051537 0.69859487 0
19.961355 15.359638 0.87786192 0
20.117138 15.157965 0.87793171 0
25.303833 15.128843 0.5137639 0
25.514315 15.091871 0.51659125 0
30.270203 15.21489 0.59051961 0
42.322929 15.068252 0.78333378 0
42.583881 15.260139 0.78875566 0
-3.535769 15.795188 0.70500177 0
10.474113 15.789427 0.65999138 0
10.520099 15.732864 0.9893589 0
-3.5472691 16.242975 0.67551088 0
10.441261 16.284285 0.67383945 0
-3.5529037 16.732197 0.74410135 0
10.407121 16.720867 0.68608916 0
-3.5559466 17.225309 0.81679529 0
13.103279 17.309681 0.75645363 0
17.975016 17.491409 0.87416261 0
18.009588 17.421331 0.87332499 0
41.926701 17.167328 0.78996575 0
42.046307 17.370687 0.79324675 0
42.579903 17.201229 0.80075133 0
-3.5797284 17.711763 0.73425215 0
10.379531 17.819666 0.71846431 0
17.924196 17.606247 0.87569815 0
32.683708 17.787413 0.64867103 0
-3.5793531 18.201506 0.86159772 0
-3.2248251 18.066032 0.63917261 0
10.327593 18.248213 0.73054421 0
17.390099 18.321764 0.88044453 0
32.860806 18.080379 0.65383697 0
-3.5766804 18.703156 0.99542993 0
10.290683 18.790655 0.74646533 0
17.364601 18.527258 0.88505119 0
10.259434 19.299225 0.76157677 0
5.1435108 19.576279 0.70514435 0
10.230134 19.759317 0.77532721 0
10.195202 20.228224 0.78935683 0
10.134081 20.722759 0.80387503 0
40.82645 21.395599 0.80371821 0
41.424053 21.469213 0.81356138 0
25.398117 22.878071 0.5958252 0
32.493935 22.616844 0.69020778 0
32.626465 22.709623 0.69303501 0
5.3890152 24.065094 0.85950476 0
24.856796 25.486237 0.62057263 0
26.238689 25.438049 0.63706517 0
26.79487 25.429895 0.64397055 0
27.261209 25.41271 0.64969492 0
27.757416 25.396118 0.65586138 0
28.862444 25.355886 0.66975355 0
29.307756 25.341932 0.67545468 0
29.763037 25.338598 0.68144667 0
30.216017 25.317629 0.68725252 0
30.506826 25.245676 0.69034737 0
19.411552 25.660049 0.5607807 0
19.650997 25.640127 0.56303787 0
21.44453 25.594826 0.58200282 0
21.76339 25.576614 0.58535373 0
22.093794 25.588617 0.58926302 0
23.325266 25.534136 0.6028294 0
23.758133 25.523033 0.60780913 0
24.122614 25.514809 0.6120559 0
13.998702 29.431641 0.56804091 0
14.131842 29.361248 0.56793618 0
13.875003 29.650553 0.57057732 0
-4.1680818 41.117077 0.72054005 0
-3.9225898 41.235641 0.72218055 0
-3.6319792 41.612778 0.72827727 0
14.06764 49.367088 0.89516884 0
16.423649 49.216171 0.90480256 0
16.753693 49.199875 0.90637326 0
22.509676 49.269413 0.94466382 0
13.946619 49.505295 0.89691406 0
22.446413 49.539864 0.94850338 0
-3.683275 50.329803 0.88002014 0
-3.4889276 50.973099 0.89098024 0
-3.3417947 51.171329 0.89426124 0
-3.1266179 51.555485 0.90071863 0
12.769894 54.280262 0.9724946 0
13.310454 54.291626 0.97489142 0
13.751358 54.282829 0.97660178 0
14.930746 54.296089 0.98208183 0
15.113053 54.291294 0.98284972 0
15.755239 54.29995 0.98606098 0
16.190409 54.306652 0.98831815 0
16.724602 54.31189 0.99111056 0
17.282343 54.309097 0.99397272 0
17.746618 54.309376 0.99646258 0
11.392558 54.889725 0.9776839 0
11.62116 54.698753 0.97524047 0
4.2920442 55.469868 0.97028393 0
10.857121 55.356895 0.98382699 0
11.094399 55.171074 0.98145354 0
10.352674 55.827637 0.99024951 0
10.635226 55.566845 0.98668921 0
9.8108301 56.297459 0.99664879 0
10.127612 56.035618 0.99311173 0
7.9292259 -79.425171 1.3924227 0
8.1500463 -79.121376 1.387536 0
8.3271179 -78.539909 1.3777628 0
8.578599 -78.569168 1.3787401 0
7.8909531 -70.215378 1.232489 0
13.790179 -70.27285 1.2491734 0
8.0179863 -69.379738 1.2182478 0
11.9981 -66.004295 1.1701488 0
12.241041 -66.158981 1.1735697 0
14.014776 -62.58028 1.1185597 0
14.230723 -62.217628 1.1132193 0
7.7451429 -61.190453 1.0757663 0
8.1965017 -61.15033 1.0760921 0
8.726429 -60.777996 1.0709262 0
9.1179686 -60.839314 1.072974 0
13.289144 -56.10825 1.0056309 0
13.622191 -55.994194 1.0050492 0
15.482689 -55.359066 1.0025361 0
22.223967 -53.063931 1.0033505 0
25.400087 -53.140831 1.0272486 0
25.697304 -53.124313 1.0292382 0
26.116096 -53.13591 1.032624 0
27.37009 -53.156357 1.0427812 0
32.67535 -53.138733 1.0880295 0
33.207321 -53.07402 1.0919621 0
33.666611 -53.073013 1.0962205 0
34.021255 -53.088879 1.0997808 0
35.831448 -53.316742 1.1204445 0
36.063755 -53.299976 1.1224689 0
22.745691 -52.913513 1.0044907 0
23.219273 -52.884476 1.007318 0
23.617136 -52.885445 1.0101452 0
27.689163 -52.977318 1.0425718 0
28.224024 -52.983601 1.0470281 0
28.760262 -52.993595 1.0516121 0
28.096827 -51.205223 1.0186621 0
33.114796 -51.318092 1.0652251 0
28.257988 -50.745785 1.0130075 0
28.745964 -50.696491 1.0164282 0
33.265701 -50.854176 1.0598731 0
33.794891 -50.800667 1.064178 0
16.819773 -24.534101 1.0370735 0
16.896761 -24.481142 1.0370735 0
9.355175 -23.043432 1.3008624 0
9.4621611 -22.995422 1.3006531 0
-2.3553672 -20.241638 1.0654554 0
-2.3755383 -19.609735 1.0326931 0
6.4133959 -19.25979 1.2133703 0
6.5731292 -19.218193 1.2985497 0
13.862254 -18.747721 1.2194277 0
28.313311 -18.820093 1.1855592 0
28.613119 -18.8043 1.1939816 0
29.338461 -18.936289 1.2177132 0
13.874811 -18.232895 1.1982422 0
13.873519 -17.720291 1.176931 0
13.874563 -17.22048 1.1564572 0
13.877072 -16.739029 1.1369987 0
13.898218 -16.20573 1.2654741 0
-2.4245501 -15.708534 1.2467208 0
13.940503 -15.895664 1.4750705 0
-2.5892777 -15.094241 1.0675532 0
-2.4342871 -15.319813 1.1493272 0
13.886574 -15.053124 1.0707936 0
-2.7468319 -14.896081 1.0558339 0
13.936562 -14.696003 1.4128941 0
-2.7717562 -14.291698 1.0146312 0
-2.1073332 -14.258531 1.14877 0
-1.9388268 -14.301256 1.1322433 0
13.88961 -14.38194 1.0453235 0
-2.5086355 -13.695263 1.2139051 0
-2.4729505 -13.859654 1.2275014 0
13.951089 -13.824197 1.3700171 0
14.056241 -13.757144 1.3719703 0
-2.5211418 -13.210534 1.1724191 0
-2.4796298 -13.218389 1.1724191 0
-2.5344465 -12.854814 1.1420888 0
-2.4702065 -12.651165 1.2730906 0
19.936485 -12.531548 1.2315696 0
-2.6575346 -12.182141 1.0867158 0
19.899355 -12.278519 1.2229167 0
20.071692 -12.184625 1.2280631 0
-2.8680644 -11.737781 1.0529286 0
10.271427 -11.560617 1.0780165 0
10.533294 -11.746767 1.09992 0
20.118027 -11.79032 1.2195534 0
20.569809 -11.754919 1.2391062 0
30.977812 -11.695145 1.1546149 0
31.009121 -11.871614 1.1578257 0
-2.6816735 -11.281862 1.1319221 0
6.9212532 -11.181241 1.1462723 0
7.0917015 -11.063538 1.376152 0
9.9813547 -11.41364 1.3223269 0
10.221169 -11.399333 1.3353255 0
-2.5423737 -10.752364 1.1562241 0
6.7933798 -10.635906 1.155691 0
7.1072922 -10.840026 1.357337 0
-2.5736392 -10.195626 1.100177 0
6.7333641 -10.213702 1.1302378 0
7.4711761 -10.07553 1.3132956 0
7.7523789 -10.264431 1.3093349 0
9.3687744 -10.037916 1.4381025 0
9.6209679 -10.0588 1.2135565 0
10.392457 -10.370593 1.280283 0
11.217486 -10.132003 1.3182596 0
33.326443 -10.112558 1.2145025 0
6.8478079 -9.8262444 1.127978 0
7.1388769 -9.7510786 1.1593956 0
9.4399595 -9.9688244 1.3416321 0
9.7217417 -9.8238907 1.3726828 0
10.284066 -9.8058481 1.3212161 0
10.641811 -9.6393118 1.0842786 0
11.327434 -9.8848886 1.311113 0
13.361384 -9.6957531 1.2956992 0
22.946308 -9.6217813 1.3014905 0
23.398363 -9.8042145 1.3270305 0
27.866892 -9.6517496 1.028174 0
33.321472 -9.82862 1.2115011 0
33.533295 -9.6091232 1.2164568 0
10.117995 -9.4316034 1.4487644 0
13.259841 -9.4696274 1.4213359 0
13.72239 -9.1529951 1.2950358 0
14.217269 -9.1831856 1.328697 0
22.87162 -9.3028374 1.2914944 0
23.648317 -9.4033489 1.3312174 0
28.623581 -9.4198952 1.0506145 0
13.661143 -8.9387293 1.1382396 0
11.850106 -8.2671995 1.2599235 0
9.5715952 -7.5730414 1.277756 0
9.3210669 -7.1804414 1.2832316 0
9.6243992 -7.265512 1.1354893 0
20.961441 -7.0787597 1.1569735 0
25.922625 -7.1369591 1.4065812 0
30.504429 -7.0347934 1.0915166 0
41.651131 -7.1143746 1.4738755 0
-2.6545498 -6.5667114 1.4953009 0
9.2688637 -6.8234043 1.3397756 0
15.400616 -6.5662189 1.1673514 0
15.537037 -6.6280899 1.4736294 0
20.972633 -6.9362774 1.1551592 0
30.667379 -6.8705382 1.0957977 0
36.248596 -6.7164245 1.2856973 0
41.892586 -6.8245339 1.4805297 0
-2.6611929 -6.2349014 1.3358271 0
36.396339 -6.4508905 1.2891176 0
-2.685055 -5.7300158 1.2251986 0
-3.0159695 -5.1083231 1.1220722 0
-2.7320993 -5.194777 1.228822 0
-2.4847362 -5.3665428 1.3542054 0
-3.0185242 -4.6438665 1.1410357 0
-2.7288017 -4.759038 1.2101045 0
-1.6069524 -4.6996031 1.1080185 0
-1.49971 -4.6899509 1.1256551 0
-3.0436621 -4.234931 1.1042228 0
-2.7644768 -4.1799197 1.1717752 0
-2.0543735 -4.3220282 1.0696298 0
-1.9651053 -4.2693915 1.1718986 0
7.9137478 -4.0312185 1.2414241 0
38.862103 -4.1989913 1.3633139 0
-3.0530527 -3.7336733 1.0929823 0
-2.7965648 -3.7415087 1.1595589 0
-2.4600711 -3.7928758 1.032648 0
-1.3578218 -3.9317 1.0251037 0
6.9995861 -3.5138381 1.3725152 0
7.315855 -3.7610683 1.2234497 0
7.688643 -3.8433826 1.1770195 0
12.990999 -3.533154 1.1736392 0
-3.0720711 -3.2374272 1.080773 0
-2.8581228 -3.3456886 1.1015118 0
6.8967624 -3.2438176 1.4215107 0
7.2470551 -3.2523899 1.2355418 0
7.8024459 -3.1884413 1.1640668 0
8.0165215 -3.0905695 1.353158 0
12.966092 -3.258024 1.2081279 0
13.071289 -3.2397585 1.3710465 0
-3.0954299 -2.7786629 1.0340668 0
6.7753029 -2.7822545 1.3573582 0
7.3020663 -2.9196169 1.2671751 0
7.8050103 -2.8195217 1.2962477 0
8.0618906 -2.9194322 1.1602757 0
18.342752 -2.7841473 1.2939826 0
23.149466 -2.6792679 1.2187998 0
27.672501 -2.6387229 1.4543116 0
32.851524 -2.5723577 1.149031 0
23.100086 -2.4181278 1.2147176 0
32.93116 -2.4205854 1.1514041 0
35.879906 -2.0812116 1.2533805 0
36.061966 -2.3134618 1.2602208 0
35.714054 -1.7345902 1.2469591 0
41.561188 -1.5696234 1.4507023 0
35.528873 -1.4510132 1.2400489 0
41.416279 -1.3242217 1.445351 0
41.500992 -1.0731477 1.4480499 0
41.652 -0.94729674 1.453215 0
10.687514 -0.13214545 1.4007957 0
38.840328 -0.096043386 1.3546588 0
10.475787 0.34048623 1.3340551 0
10.608182 0.20079203 1.3079441 0
38.930939 0.32762161 1.3578697 0
39.116226 0.087474413 1.3642911 0
10.358534 0.50062376 1.2674413 0
10.68006 0.61763072 1.4967604 0
15.158704 0.9061538 1.2181565 0
-3.2229939 2.4477639 1.0089414 0
-3.2296314 2.7505262 1.052175 0
-3.2058477 3.2326219 1.1016771 0
-2.9425821 3.3869324 1.1231807 0
-3.2126927 3.6957159 1.1127521 0
-2.9323506 3.7168612 1.1753576 0
36.148876 3.8372104 1.2677591 0
-3.2055545 4.1973 1.1169907 0
-2.9471343 4.2437658 1.2233988 0
7.1688213 4.4572535 1.3293802 0
35.78241 4.4185758 1.257359 0
36.088791 4.169075 1.2669563 0
-3.2101665 4.6934586 1.1097902 0
-2.9599435 4.7117152 1.2088491 0
7.1773958 4.7539873 1.2183564 0
7.5644522 4.949923 1.4241794 0
35.749588 4.5830202 1.2569404 0
-3.2131844 5.2214117 1.1320438 0
-2.9669521 5.2843628 1.2358954 0
13.420288 5.2127967 1.1109954 0
13.584308 5.1462359 1.1283513 0
18.228622 5.3331566 1.3247452 0
22.785448 5.3586035 1.2242008 0
-3.2279942 5.7756548 1.116654 0
-2.9647255 5.7458801 1.3006068 0
22.451212 5.6385579 1.2106353 0
22.540932 5.5507731 1.2140895 0
27.863148 5.9200206 1.4903185 0
37.934978 5.8851457 1.3388842 0
38.123234 5.7917132 1.344887 0
-3.2528443 6.3145995 1.135721 0
-2.9798419 6.2622347 1.2728857 0
27.829025 6.0030994 1.4894813 0
32.425934 6.2566547 1.1515437 0
32.616104 6.1340241 1.1572673 0
37.955647 6.1694369 1.3411645 0
38.091927 6.2708025 1.3464226 0
-3.2088702 6.7304902 1.1368045 0
-2.9772356 6.7239752 1.2775429 0
38.284237 6.6590443 1.3553104 0
-3.1720948 7.2903519 1.2046148 0
-2.9919572 7.2293601 1.2884245 0
-3.1619017 7.7086806 1.1821204 0
-2.9510891 7.8156018 1.380073 0
18.76004 7.9531255 1.0653508 0
-3.1653073 8.2664671 1.1979959 0
-2.9373765 8.1806993 1.3995143 0
10.554193 8.3725929 1.2729007 0
18.204481 8.2915087 1.0458468 0
18.70319 8.1356239 1.0663974 0
-3.238097 8.8003626 1.1946838 0
-2.9729958 8.5246477 1.422302 0
10.476497 8.5048904 1.4132248 0
18.233232 8.545805 1.05279 0
18.564732 8.8676224 1.0757133 0
-3.2260833 9.1918383 1.1570005 0
18.711416 9.1472254 1.0890065 0
35.446819 9.3914108 1.2788572 0
35.516613 9.1714964 1.2792759 0
-3.2319221 9.7417822 1.1636605 0
29.086262 9.7070646 1.0691111 0
35.615292 9.7298365 1.2876168 0
-3.3017769 10.164041 1.1803063 0
35.773842 10.075103 1.2961673 0
-3.272239 10.757498 1.1768411 0
6.2838974 10.971292 1.3238529 0
6.7531514 10.861298 1.2221262 0
7.2632489 10.849797 1.367292 0
7.5228281 10.846138 1.3822844 0
-3.2523999 11.253937 1.1802102 0
6.0597696 11.094843 1.3236649 0
6.6311336 11.161765 1.2823139 0
7.3795838 11.221829 1.2889185 0
7.6160722 11.347078 1.191419 0
11.892204 11.347403 1.4338863 0
-3.3153253 11.72512 1.1468813 0
6.2272487 11.773322 1.2242103 0
6.7496696 11.799434 1.1851002 0
7.0094094 11.863728 1.2013547 0
11.456459 11.920299 1.4422531 0
11.654694 11.644567 1.3218163 0
12.057698 11.715752 1.4666569 0
16.946632 11.857441 1.4429359 0
27.40097 11.658253 1.0381902 0
37.63311 11.907661 1.3767154 0
-3.4446533 12.191948 1.1042051 0
6.2745399 12.058764 1.4236777 0
6.6027036 12.012967 1.1950797 0
11.368395 12.089176 1.4476569 0
16.932817 12.123198 1.4528878 0
19.700058 12.472102 1.2194278 0
22.788208 12.348326 1.3558362 0
37.785984 12.152045 1.3843932 0
-3.455904 12.682307 1.1458076 0
19.652378 12.524814 1.2187997 0
-3.3251038 13.252833 1.1912446 0
-3.1562195 13.624073 1.2193089 0
-3.5286674 14.223277 1.0213742 0
-3.2548099 14.248021 1.2097002 0
21.181824 14.44255 1.3410565 0
-3.5322013 14.82607 1.062391 0
-3.2029672 14.877295 1.3272076 0
10.667676 14.883824 1.277148 0
11.723119 14.957352 1.2140903 0
12.189865 14.948044 1.0083394 0
13.246255 14.953559 1.0444163 0
19.19766 14.718862 1.2652742 0
19.53479 14.654716 1.2773113 0
20.933804 14.563224 1.3339388 0
21.155188 14.569695 1.3436732 0
25.6854 14.963227 1.0363754 0
-3.5425661 15.295006 1.0944791 0
-3.2284758 15.348542 1.3679965 0
10.498856 15.497036 1.3055621 0
10.51276 15.211718 1.2896578 0
12.204762 15.030526 1.0121773 0
13.296928 15.034434 1.2832016 0
19.42778 15.172424 1.2893486 0
25.616312 15.085064 1.0364451 0
30.287012 15.348393 1.1840235 0
-3.5518126 15.775862 1.1274042 0
-2.7652662 15.952566 1.4122717 0
10.466827 15.607621 1.3107243 0
30.224257 15.553554 1.1853266 0
-3.5481346 16.360329 1.1672583 0
10.48385 16.273949 1.0120203 0
10.500294 16.024031 1.0015008 0
-3.3749447 16.684532 1.1869761 0
10.44165 16.716667 1.0304322 0
-3.2887225 17.226315 1.2229705 0
32.485191 17.336428 1.2841619 0
32.801617 17.371412 1.2944921 0
33.152721 17.386757 1.3055902 0
-3.3145604 17.808167 1.2632897 0
10.406353 17.872198 1.0813307 0
16.919455 17.886839 1.2878308 0
32.465981 17.97439 1.2942129 0
32.521324 17.811642 1.2931659 0
37.779587 17.977119 1.4593574 0
-3.3085558 18.253536 1.2938432 0
10.360199 18.246162 1.0971186 0
16.693529 18.037689 1.2855107 0
17.374481 18.083778 1.3117485 0
37.694084 18.081892 1.4582406 0
-3.2223473 18.877317 1.2239498 0
-2.9569905 18.956636 1.0029663 0
10.330217 18.732121 1.1185764 0
22.790607 18.68996 1.0275807 0
23.080261 18.688881 1.0353982 0
-3.5896986 19.251493 1.0237961 0
10.315737 19.235619 1.1413949 0
-3.5913627 19.777185 1.0509059 0
5.1581244 19.591316 1.2362555 0
10.282095 19.757105 1.1647366 0
10.249525 20.228544 1.1859328 0
10.195573 20.674109 1.2055588 0
25.317595 22.860563 1.1895144 0
32.5415 22.775549 1.3853704 0
33.125038 22.951815 1.4056121 0
-3.4145589 23.327271 1.2330351 0
25.328941 23.008821 1.1932836 0
-3.4064944 23.788561 1.2569003 0
-3.4257681 24.455538 1.2916514 0
-3.4452615 25.190807 1.3299613 0
26.910931 25.456354 1.2919095 0
27.321035 25.446707 1.3021235 0
27.742229 25.437702 1.3127098 0
28.751923 25.391336 1.3378373 0
29.202339 25.38975 1.3496333 0
29.751951 25.38459 1.3640584 0
30.26861 25.355539 1.3771807 0
-3.437602 25.711824 1.3569666 0
21.25218 25.615393 1.1606177 0
21.786106 25.601429 1.1722392 0
23.223825 25.552942 1.2041258 0
23.655403 25.545786 1.2141302 0
-3.4097412 26.098286 1.3768543 0
10.083541 28.833191 1.064993 0
10.053923 29.0382 1.0714146 0
13.864916 29.344654 1.131693 0
13.498249 29.511942 1.1315813 0
13.62273 29.538353 1.1342336 0
-4.0396042 30.10383 1.0589904 0
-4.0604782 31.000317 1.0901207 0
-4.0887551 31.992285 1.1246014 0
19.345314 54.28326 1.0050492 0
19.728065 54.302593 1.0076321 0
20.308876 54.311584 1.0112857 0
20.789783 54.312187 1.014264 0
21.276031 54.311047 1.0173124 0
21.759621 54.303822 1.0203025 0
22.25193 54.306309 1.0235721 0
22.795197 54.30035 1.027109 0
23.291403 54.30061 1.0304948 0
23.691391 54.301884 1.0332873 0
24.19976 54.304142 1.0369056 0
9.5014458 56.566994 1.0003721 0
9.4671917 67.985687 1.1973048 0
9.8126307 68.114395 1.2003765 0
10.194176 68.47493 1.207567 0
5.8589926 70.855484 1.240168 0
6.1155148 71.363686 1.249383 0
6.8014879 71.446205 1.251896 0
6.5905819 71.614571 1.2544789 0
9.8364887 73.110077 1.2868009 0
-4.7526293 -109.24416 1.9078273 0
-5.078414 -108.85715 1.9013349 0
-6.245142 -108.45583 1.8954011 0
-5.7341094 -108.29192 1.8920504 0
-5.3936682 -108.3054 1.8919804 0
16.198118 -97.743965 1.7285562 0
16.51712 -97.763573 1.7298126 0
20.568319 -97.523567 1.738888 0
16.747519 -97.265816 1.7219241 0
20.794041 -97.164879 1.7335825 0
8.2491989 -94.6549 1.6576296 0
8.5176716 -94.32592 1.652324 0
13.307793 -55.417988 1.9885733 0
13.331584 -54.758308 1.9663773 0
13.347545 -54.0835 1.9436227 0
13.35347 -53.418865 1.9211475 0
13.363822 -52.760834 1.8989514 0
13.373633 -52.110634 1.8770344 0
13.388515 -51.495731 1.8563739 0
13.391176 -50.87936 1.8355738 0
22.257507 -50.510532 1.9258471 0
22.734625 -50.531582 1.9332924 0
23.214804 -50.534176 1.9403189 0
23.782091 -50.530487 1.9485551 0
24.275322 -50.5536 1.9566752 0
24.75699 -50.550156 1.9639109 0
25.252617 -50.553398 1.9716821 0
25.744209 -50.560432 1.9796391 0
26.246479 -50.572166 1.9880149 0
26.745096 -50.578602 1.9962978 0
13.426116 -50.373856 1.818822 0
13.763115 -50.364155 1.8215675 0
14.262845 -50.371769 1.8264999 0
14.761753 -50.391666 1.8319908 0
15.276137 -50.403839 1.8375282 0
15.79242 -50.412052 1.8431121 0
16.141685 -50.414837 1.8468814 0
17.803707 -50.43325 1.8660063 0
18.247353 -50.441574 1.8714972 0
18.69738 -50.454277 1.8773137 0
21.319324 -50.485931 1.9120737 0
21.689346 -50.497601 1.917518 0
18.380423 -45.846844 1.7231976 0
26.64558 -45.500092 1.8396224 0
18.237995 -45.141445 1.6984887 0
26.277561 -45.196461 1.8239875 0
26.716877 -45.140282 1.8300598 0
27.292822 -45.147446 1.8405995 0
27.588537 -45.154919 1.8461834 0
16.827261 -44.553249 1.6614255 0
17.174198 -44.634892 1.6684053 0
26.870462 -44.925701 1.8263605 0
17.38895 -44.367096 1.6624026 0
17.625048 -44.349182 1.6648456 0
9.4225607 -23.02615 1.7363782 0
-2.1279652 -22.051651 1.5458034 0
-1.9881738 -22.020697 1.5427341 0
6.398541 -19.276411 1.7727479 0
6.5575967 -19.25248 1.7751882 0
29.426577 -19.015955 1.8336425 0
29.623978 -19.011915 1.8422257 0
13.873623 -18.123545 1.7923795 0
13.894049 -17.750467 1.7701443 0
13.896871 -17.25169 1.739536 0
13.898902 -16.740812 1.6875426 0
13.892885 -16.271536 1.8138142 0
18.428612 -16.289801 1.7165673 0
43.474453 -16.111443 1.6173823 0
46.886139 -14.709514 1.7143097 0
-2.0394647 -14.257875 1.6609695 0
-1.9432682 -14.293049 1.6381269 0
-2.2253251 -12.34731 1.7565036 0
19.467497 -12.397511 1.6105374 0
19.678257 -12.15902 1.6141995 0
20.159092 -12.028393 1.6381611 0
19.25115 -11.860026 1.9740194 0
20.309561 -11.907144 1.6429044 0
20.681227 -11.868146 1.6640173 0
46.673985 -11.537592 1.6772697 0
6.8537126 -11.000924 1.8148172 0
7.2977262 -11.019924 1.6169624 0
46.452877 -11.101515 1.6661718 0
46.651749 -11.376683 1.6751758 0
6.9087253 -10.787173 1.7935832 0
7.2757649 -10.7055 1.7354167 0
7.539813 -10.977835 1.8649197 0
27.440216 -10.570548 1.5385724 0
6.4033203 -10.11265 1.8881639 0
7.2658515 -10.185507 1.6510822 0
7.7367725 -10.291294 1.6821089 0
27.493931 -10.447025 1.5388865 0
27.732706 -10.191068 1.5459343 0
32.785339 -10.231888 1.797426 0
33.432873 -10.15206 1.8286183 0
6.439641 -9.8956823 1.8623524 0
6.6849856 -9.7340746 1.8627695 0
7.1047897 -9.7886267 1.783268 0
7.702167 -9.5130606 1.9310271 0
13.31314 -9.539505 1.7163572 0
13.650701 -9.5586462 1.7464616 0
27.910616 -9.9154263 1.5497723 0
33.08062 -9.5549965 1.8020315 0
46.593319 -9.6870832 1.6601924 0
7.8612657 -9.4662275 1.9413069 0
8.0539846 -9.4285336 1.9563694 0
10.371964 -9.2001915 1.6964213 0
10.666933 -9.2363176 1.7266449 0
11.197978 -9.179491 1.5168126 0
13.334557 -9.2876787 1.8929672 0
13.521997 -9.1898689 1.713326 0
22.489799 -9.184535 1.6953613 0
22.518541 -9.1138382 1.6953613 0
23.394426 -9.2163067 1.7549334 0
23.597689 -9.2947607 1.7701403 0
28.757776 -9.3166695 1.5817322 0
33.154758 -9.412322 1.8037064 0
46.562542 -9.2293425 1.6559578 0
23.455976 -8.9876165 1.7531197 0
23.606895 -8.8784208 1.7602812 0
46.492313 -8.9148884 1.6514442 0
9.0234385 -7.5184445 1.6439126 0
8.8882141 -7.3361988 1.817623 0
9.0499706 -7.2219605 1.7233155 0
9.5516748 -7.0503631 1.6617268 0
20.966824 -7.1963897 1.7409375 0
25.867619 -7.245532 1.8751097 0
26.033237 -7.032618 1.8823086 0
30.444258 -7.1234093 1.6360918 0
35.924633 -7.0089521 1.9157053 0
48.259487 -7.0962934 1.7016994 0
48.970013 -7.0438375 1.7259896 0
-2.666008 -6.599834 1.6485178 0
8.8995361 -6.7759151 1.829913 0
9.1675825 -6.8485484 1.7232673 0
9.7511005 -6.8522601 1.7623765 0
10.112412 -6.9941349 1.9397875 0
20.958836 -6.7961841 1.7783284 0
21.055004 -6.6458015 1.7337756 0
26.043638 -6.9477062 1.8814716 0
30.442713 -6.8260646 1.6325327 0
36.125763 -6.7641568 1.9236604 0
49.279263 -6.8059134 1.7355286 0
-2.6724374 -6.308126 1.6244687 0
8.9814758 -6.4849553 1.9448595 0
9.0674229 -6.4393182 1.9525 0
36.207516 -6.496551 1.9253353 0
49.269611 -6.3337874 1.733016 0
-2.6361995 -5.5276661 1.5149149 0
7.31393 -4.1148386 1.7718871 0
7.6003509 -4.2003303 1.6786104 0
6.8837991 -3.5167353 1.773514 0
7.2640009 -3.8084228 1.8177742 0
7.579617 -3.9328804 1.5990535 0
12.941714 -3.5524974 1.8318657 0
6.8531837 -3.2139356 1.7365122 0
7.1875901 -3.2953405 1.8138891 0
7.6116972 -3.4774218 1.6172971 0
12.893208 -3.3154991 1.7658309 0
13.217207 -3.2457519 1.6994479 0
13.544169 -3.2460761 1.9506503 0
18.258665 -3.0982649 1.941442 0
23.293158 -3.0722139 1.6395562 0
6.7984085 -2.7448761 1.7213755 0
7.2436295 -2.7131662 1.6715217 0
7.7882204 -2.6986609 1.6527841 0
8.0049582 -2.9333286 1.6478266 0
18.224865 -2.7021625 1.7154702 0
18.517204 -2.5275874 1.6308582 0
23.302471 -2.7794316 1.6376827 0
27.796988 -2.6179214 1.9489959 0
32.464306 -2.6404486 1.7044774 0
32.789619 -2.5813451 1.7212249 0
6.8804288 -2.3571327 1.804618 0
7.1104259 -2.1668069 1.772167 0
7.7706461 -2.4494078 1.6914753 0
18.189232 -2.3219993 1.8012046 0
18.544518 -2.4440274 1.6322528 0
27.816425 -2.4032216 1.9489959 0
28.395626 -2.2756271 1.9886175 0
32.880421 -2.3857329 1.7252026 0
35.78109 -2.2050061 1.8762441 0
36.18774 -2.0623877 1.8970736 0
7.1413913 -1.9772735 1.8264198 0
35.95417 -1.7673813 1.884042 0
36.085991 -1.4371895 1.8901654 0
45.676826 -0.82460165 1.5936506 0
10.298552 -0.085101679 1.9182392 0
10.617838 -0.13491842 1.7316706 0
11.00164 -0.2760002 1.9320096 0
10.352448 0.20787288 1.8015296 0
10.571353 0.27891982 1.6499932 0
10.380458 0.58474255 1.7834647 0
10.703323 0.58192956 1.5948373 0
15.169843 0.90149903 1.5921775 0
15.217766 1.0652198 1.5983099 0
34.725136 3.4115782 1.8261061 0
45.684505 3.2785749 1.5977688 0
7.2529182 3.9760666 1.6987629 0
34.749115 3.7447038 1.8291626 0
42.89674 3.9466639 1.5026327 0
45.655441 3.7692776 1.5980712 0
6.8771782 4.2706442 1.7661797 0
7.193152 4.1580195 1.7097284 0
7.7108641 4.2906475 1.7047663 0
34.837883 4.0807605 1.835736 0
35.356503 4.252614 1.863788 0
35.553093 4.3895473 1.8748834 0
42.862366 4.2080932 1.5023069 0
45.612686 4.0513687 1.5974197 0
6.9317822 4.8178926 1.823441 0
7.1920061 4.7907996 1.6563764 0
7.6075182 4.6458502 1.6224692 0
13.472687 4.8540263 1.7522351 0
13.671446 4.8218689 1.7007633 0
35.716187 4.7362432 1.8856853 0
6.9241786 5.0910931 1.934049 0
7.1342373 5.1844826 1.8364723 0
13.419706 5.2077079 1.6889714 0
13.523531 5.2564807 1.5200231 0
18.200748 5.4016485 1.7899301 0
22.682072 5.4398513 1.6276976 0
35.701126 5.1219416 1.8876534 0
-3.024188 5.7702656 1.6304061 0
-2.9505274 5.7816086 1.6156706 0
18.187836 5.5993295 1.6607237 0
22.695839 5.594327 1.6311853 0
27.891191 5.9585738 1.9909893 0
32.508926 5.9605603 1.7295986 0
42.772575 5.8869605 1.506053 0
-2.9761837 6.4532237 1.5002906 0
27.963013 6.2005486 1.9994997 0
32.467266 6.4757166 1.7325295 0
32.57518 6.2348957 1.7356697 0
37.605164 6.3517642 1.9961979 0
42.734745 6.1555715 1.5060529 0
-2.9102757 6.8365712 1.5691789 0
32.466339 6.5816426 1.7335763 0
-2.9734032 7.3829589 1.5919319 0
-3.0287054 7.72369 1.7159114 0
-2.9719217 7.7510171 1.6343009 0
-2.9966388 8.3924646 1.5628335 0
10.487238 8.4525824 1.8862594 0
10.531116 8.3100786 1.7429631 0
14.666961 8.4742775 1.7753114 0
10.437011 8.5469055 1.8891356 0
14.636681 8.6393967 1.7813324 0
15.266101 8.6463156 1.6345445 0
15.554982 8.6035194 1.8632547 0
29.159164 9.4301176 1.6035737 0
35.416313 9.4751768 1.9188454 0
35.622066 9.2954493 1.9268703 0
36.018829 9.1594849 1.9452227 0
45.344738 9.3291044 1.6149626 0
29.038521 9.5425625 1.5993869 0
35.428787 9.5978718 1.9211483 0
35.615627 9.8877554 1.9346161 0
35.671803 10.141159 1.941036 0
45.288479 10.275639 1.6200346 0
6.4052086 10.916317 1.7161102 0
6.7734571 10.83232 1.7023715 0
7.2025695 10.780872 1.632089 0
7.5001884 10.849371 1.6135501 0
13.126618 10.987344 1.7941265 0
45.255516 10.710934 1.6223379 0
6.2140403 11.206454 1.6926539 0
6.8317742 11.181894 1.6496487 0
7.3262925 11.124713 1.8186268 0
11.962699 11.449894 1.7353816 0
12.142274 11.229583 1.7333143 0
12.873505 11.359794 1.7994924 0
13.159082 11.217432 1.8123564 0
6.2556825 11.802031 1.7284435 0
11.483675 11.588335 1.7096677 0
11.73146 11.677641 1.7347962 0
16.953552 11.905146 1.8082201 0
17.061852 11.704371 1.8059832 0
6.240324 12.083393 1.8142666 0
11.714975 12.107898 1.7656949 0
16.794857 12.147248 1.8092139 0
22.818596 12.305709 1.8095294 0
23.000471 12.099416 1.8139474 0
22.627878 12.566219 1.806553 0
42.776154 12.879135 1.5583323 0
42.758427 13.020434 1.5591699 0
10.48765 14.962165 1.9153795 0
10.699873 14.874795 1.7599889 0
11.182272 14.905962 1.8873543 0
11.512365 14.908868 1.6437572 0
13.245997 14.942108 1.7427663 0
19.192221 14.755814 1.6895018 0
19.669727 14.689728 1.7133306 0
25.238419 14.758692 1.5297277 0
29.108175 14.959603 1.7126418 0
42.656796 14.822119 1.5752935 0
10.530703 15.231531 1.6158676 0
13.438196 15.019024 1.7589772 0
19.361814 15.129964 1.7148931 0
28.986927 15.067963 1.7096064 0
29.096495 15.353804 1.7216436 0
30.027014 15.312393 1.763931 0
42.643219 15.265553 1.5800049 0
-3.0335541 16.050253 1.7117581 0
-2.7366862 16.026894 1.8388109 0
-2.4785535 16.021709 1.7942928 0
16.955585 17.905987 1.7210317 0
17.088377 17.721008 1.718102 0
16.822638 18.214716 1.7304721 0
5.1708536 19.599133 1.7691745 0
10.239395 20.319838 1.9065415 0
10.140567 20.717163 1.609561 0
5.400887 24.073576 1.7218688 0
26.932774 25.412619 1.938105 0
27.266075 25.397614 1.9503169 0
27.678246 25.382355 1.9656337 0
19.292086 25.642641 1.6792165 0
19.656418 25.626715 1.6901025 0
21.438736 25.567522 1.7461368 0
21.761776 25.555809 1.756604 0
22.074326 25.545809 1.766862 0
23.255173 25.517796 1.8068466 0
13.864292 29.357048 1.6989647 0
14.07376 29.212212 1.6968362 0
13.737484 29.568012 1.7061523 0
17.364185 48.896812 1.8103065 0
22.031824 48.962944 1.8732655 0
-3.0755312 49.230125 1.7208244 0
-2.843164 49.238026 1.7206149 0
16.368853 49.220585 1.8097018 0
17.656584 49.000324 1.817147 0
21.917717 49.101696 1.8760574 0
16.202808 49.76078 1.825802 0
21.950855 49.590054 1.8921111 0
-4.0881219 50.744728 1.7761052 0
-3.7719858 50.743652 1.775221 0
-3.4604247 50.751328 1.7747092 0
-3.380724 51.521896 1.8013723 0
12.439206 54.283211 1.9430645 0
12.792846 54.288403 1.9460425 0
13.240671 54.290764 1.9497651 0
13.594187 54.293983 1.9528362 0
14.835667 54.316147 1.9645624 0
15.293774 54.332024 1.9693786 0
15.746615 54.317188 1.9732175 0
16.208372 54.324322 1.9780103 0
16.761404 54.324986 1.9836408 0
17.222332 54.32056 1.9882941 0
17.507235 54.342884 1.9920632 0
11.236494 54.901878 1.9552791 0
10.784866 55.297874 1.965749 0
11.008698 55.109108 1.9607933 0
10.24591 55.773449 1.9785687 0
10.55752 55.518818 1.9718215 0
9.4596729 56.425842 1.9962512 0
9.7808409 56.176105 1.9895505 0
7.1247087 -120.69162 2.1095073 0
6.7248154 -120.34203 2.1030149 0
0.34329325 -116.01796 2.0242696 0
-0.00275514 -115.64253 2.0177076 0
-1.0864908 -115.18948 2.0098889 0
-0.72570312 -115.06833 2.0077248 0
-0.36440673 -115.12604 2.0087023 0
7.7538567 -70.103577 2.4613218 0
13.761532 -70.198303 2.4963613 0
14.098786 -70.170174 2.4976871 0
7.996901 -69.406403 2.4380789 0
8.1609163 -68.940506 2.4225836 0
12.348222 -65.656349 2.3312864 0
12.561184 -65.652565 2.3325427 0
12.085999 -65.39212 2.3205373 0
8.260272 -61.562611 2.1673985 0
9.2727165 -61.783253 2.1800086 0
7.850101 -61.346245 2.1580453 0
8.2301655 -61.332405 2.1593018 0
8.7736225 -61.019058 2.1510653 0
8.5174074 -60.587105 2.134872 0
13.27811 -56.866962 2.0375721 0
13.29653 -56.148083 2.0132821 0
27.241444 -50.586456 2.0046968 0
27.767145 -50.612247 2.0142593 0
28.283142 -50.621407 2.0232635 0
28.702175 -50.621803 2.0304527 0
29.127422 -50.64827 2.038619 0
31.381487 -50.664249 2.0794516 0
31.710783 -50.663979 2.0855241 0
32.03352 -50.64756 2.0910382 0
16.959026 -44.355492 2.4861672 0
17.196882 -44.143555 2.4803057 0
17.581165 -44.323235 2.4964252 0
17.096815 -43.886993 2.4658611 0
9.3870239 -23.043959 2.1727345 0
6.4021964 -19.26539 2.3332813 0
6.5472708 -19.240702 2.3104062 0
23.420563 -19.019497 2.1063664 0
23.501928 -18.963377 2.1083195 0
34.285976 -18.966681 2.0509415 0
34.534626 -18.970707 2.0624554 0
13.902942 -17.709152 2.3613398 0
13.916996 -17.224606 2.3224134 0
13.917743 -16.746122 2.2835708 0
13.913481 -16.231226 2.2419267 0
13.916247 -15.731934 2.2025402 0
13.926457 -15.258558 2.1662478 0
13.862642 -14.73036 2.4777501 0
16.616991 -14.882728 2.339556 0
-2.0468142 -14.270925 2.1732044 0
-1.9377102 -14.309697 2.1253042 0
13.860623 -14.241427 2.4342182 0
13.90176 -13.975778 2.4144754 0
14.085291 -13.855939 2.4200816 0
14.821987 -13.915271 2.4903593 0
19.168291 -12.600412 2.4059315 0
19.349461 -12.339819 2.3055348 0
19.578726 -12.357151 2.2254398 0
19.401693 -11.918061 2.3881619 0
19.689192 -11.757124 2.2034624 0
20.330244 -11.839414 2.0540867 0
20.861092 -11.932131 2.0983617 0
6.4618783 -11.064438 2.4812801 0
6.5511017 -11.052311 2.2569633 0
19.218313 -11.196344 2.3326571 0
6.4368062 -10.750856 2.4263272 0
6.6240239 -10.79996 2.339241 0
18.643093 -10.669024 2.2525883 0
6.4340405 -10.153503 2.2182789 0
6.5234718 -10.333522 2.1462915 0
27.684727 -10.084619 2.0569789 0
32.715733 -10.274188 2.3945074 0
6.4521408 -9.8887367 2.1585107 0
6.7095613 -9.6302223 2.1630235 0
7.2596717 -9.6227446 2.2311263 0
7.6130738 -9.6532202 2.159373 0
8.1574316 -9.5270891 2.4286168 0
13.730536 -9.556963 2.0481851 0
27.699249 -9.8476944 2.0523283 0
32.461571 -9.9194851 2.3701854 0
32.650845 -9.6990957 2.3784168 0
45.79361 -9.7481794 2.4512069 0
7.4324117 -9.4541607 2.3282514 0
7.7655067 -9.400876 2.2683315 0
8.0847406 -9.43859 2.1828732 0
13.895778 -9.2631388 2.3403349 0
14.099977 -9.0855074 2.3506336 0
22.380238 -9.1539831 2.1112607 0
22.668085 -9.3551226 2.1412423 0
32.629513 -9.4747553 2.3725572 0
45.861561 -9.24368 2.4493227 0
8.7815609 -7.5111809 2.1330438 0
25.943428 -7.5904922 2.3607006 0
8.8290014 -7.27531 2.2141993 0
9.2115393 -7.1690712 2.1554544 0
20.878307 -7.1011868 2.3127966 0
25.637024 -7.284205 2.327523 0
30.348604 -7.1606297 2.1770995 0
41.576054 -7.1957803 2.2087867 0
8.8942327 -6.7591043 2.3645103 0
9.1691484 -6.7610145 2.2254915 0
9.7819319 -6.7052565 2.1877394 0
10.202837 -6.8268394 2.3459456 0
20.91325 -6.7522821 2.3048005 0
30.303564 -6.7035804 2.1669152 0
41.910831 -6.8511729 2.2230918 0
8.9558458 -6.335278 2.2651415 0
9.2898273 -6.429204 2.186671 0
9.5738125 -6.4979763 2.4491997 0
21.03178 -6.3595271 2.3043299 0
30.43158 -6.3854275 2.1709609 0
30.580614 -6.2663169 2.1794713 0
7.4725428 -4.0301967 2.1361368 0
7.3074765 -3.7487481 2.0599246 0
7.882298 -3.579093 2.1783295 0
12.951451 -3.589524 2.2924848 0
13.245155 -3.7374575 2.2948179 0
7.4168625 -3.4567323 2.0584233 0
7.6137519 -3.4294631 2.1008124 0
12.471913 -3.0551805 2.4866228 0
12.764667 -3.2044842 2.229466 0
13.011896 -3.1827855 2.1140554 0
18.218618 -3.1912575 2.2651451 0
12.44637 -2.9260657 2.4759376 0
12.851694 -2.8100662 2.3443358 0
13.294971 -2.8856425 2.3904407 0
17.874453 -2.5882242 2.2116849 0
18.133204 -2.7636724 2.2463932 0
23.3612 -2.6346662 2.3970172 0
18.161892 -2.3429983 2.2425909 0
18.579559 -2.2221863 2.291631 0
23.367823 -2.2770064 2.2563896 0
28.093899 -2.2582784 2.4616268 0
32.876431 -2.2243752 2.3008478 0
32.948578 -1.9739807 2.304754 0
35.697514 -1.6353161 2.4954679 0
9.9461832 -1.0584811 2.4818769 0
41.697189 -1.145154 2.1835608 0
9.9423161 -0.70068455 2.4469438 0
10.19768 -0.6256187 2.2607422 0
41.321785 -0.68650359 2.1633589 0
41.57431 -0.77257252 2.1766872 0
9.8875618 -0.19344294 2.466032 0
10.163984 -0.27016646 2.2987006 0
10.614017 -0.25002658 2.0543771 0
9.9975014 0.44181481 2.4830863 0
10.358792 0.27708444 2.197082 0
10.519866 0.1902087 2.417999 0
9.9851007 0.77910352 2.485183 0
10.177707 0.67038304 2.291764 0
10.526698 0.59794813 2.0401299 0
15.070462 0.95217484 2.3840611 0
15.199206 1.0791659 2.2700346 0
42.960682 2.8801014 2.254005 0
43.061207 2.7509542 2.2588198 0
42.94706 3.0758281 2.254005 0
45.672512 3.4858456 2.3980334 0
7.1862326 3.952533 2.0328696 0
34.785152 3.6238434 2.4422207 0
35.041252 3.8687265 2.4618454 0
45.652393 3.7708845 2.3981731 0
6.9385262 4.3093753 2.0295944 0
7.0817814 4.2083621 2.0524356 0
7.671299 4.4063396 2.2264099 0
13.823118 4.4213862 2.1434414 0
35.430981 4.2483063 2.4919803 0
45.640549 4.1974134 2.3994989 0
6.8408422 4.9740415 2.1092925 0
7.1870775 4.7291951 2.1208334 0
7.7185698 4.5627551 2.2568281 0
13.448652 4.9368248 2.2614167 0
13.7133 4.7548466 2.1571033 0
22.719107 4.809793 2.4357641 0
35.305878 4.6784878 2.4870508 0
6.8775749 5.1319971 2.0668192 0
7.2420149 5.0972233 2.1541164 0
7.8316669 5.2190924 2.3521192 0
13.427641 5.1146092 2.0766068 0
13.594991 5.3558726 2.2201853 0
18.206486 5.2274656 2.3199589 0
22.710165 5.2717013 2.2565539 0
27.947214 5.4284492 2.4865534 0
13.449138 5.5878563 2.2340832 0
13.507084 5.5293746 2.1309574 0
18.115721 5.5071545 2.3189299 0
22.463886 5.823885 2.4340496 0
22.562147 5.6938801 2.1803372 0
27.482477 5.7407212 2.4520977 0
27.824022 5.7197604 2.4810336 0
32.575378 5.9560099 2.3122876 0
38.094162 5.8272028 2.0171323 0
27.761642 6.1896377 2.3165791 0
32.486183 6.0436087 2.307265 0
32.576771 6.3245273 2.3171706 0
37.784302 6.1381183 2.0036297 0
38.092781 6.0055718 2.0184932 0
37.801582 6.6236272 2.0087585 0
10.441561 8.3726921 2.271728 0
10.586038 8.1894512 2.2043478 0
14.185916 8.3682194 2.2339098 0
14.53201 8.3892412 2.3514688 0
15.356905 8.3984709 2.3841596 0
10.28964 8.6304846 2.3596182 0
14.372643 8.7465563 2.1443019 0
14.663407 8.7022734 2.1893218 0
15.220873 8.6038713 2.2183642 0
29.322607 9.318553 2.1481273 0
24.405863 9.7996101 2.2967281 0
29.236374 9.6938 2.1505084 0
45.323868 9.9189405 2.4290164 0
45.308441 10.136316 2.4306912 0
6.3260098 10.91654 2.1700058 0
6.8381176 10.87623 2.2067823 0
7.1175861 10.850689 2.1512072 0
12.268499 10.852252 2.295243 0
12.684514 10.863769 2.2905533 0
13.122545 10.87583 2.2378194 0
6.3685746 11.309128 2.2215941 0
6.6824994 11.152711 2.2201355 0
7.0091801 11.045436 2.0643091 0
11.924724 11.316319 2.2669928 0
12.203465 11.213697 2.1261895 0
12.777215 11.171227 2.0780466 0
13.131185 11.054633 2.1016777 0
6.3040314 11.816152 2.2506738 0
11.748828 11.733356 2.1668043 0
12.100823 11.53085 2.0464301 0
16.988407 11.956262 2.1783731 0
17.076218 11.858307 2.1800458 0
22.811537 11.848473 2.244725 0
26.919613 11.938915 2.0558629 0
27.240314 11.878725 2.074697 0
27.715017 11.88179 2.1052504 0
37.089027 11.613719 2.0342984 0
37.523266 11.555722 2.0551283 0
38.262554 11.651695 2.0936475 0
6.4642353 12.033831 2.4001651 0
6.5421453 12.043249 2.4081528 0
16.485292 12.304676 2.1570494 0
16.613083 12.239093 2.1637392 0
22.47315 12.257195 2.2353706 0
22.560848 12.078239 2.2346733 0
26.885422 12.122879 2.0589321 0
27.11529 12.431934 2.0825098 0
26.924759 12.648157 2.0767896 0
27.090025 12.814509 2.0922291 0
31.956324 13.054543 2.4105046 0
32.011734 13.192807 2.4177594 0
19.399923 14.399532 2.1095173 0
42.72522 14.473928 2.3616078 0
10.695623 14.864232 2.242605 0
11.078388 14.900592 2.2739193 0
12.885802 14.985748 2.4208126 0
13.120058 14.948069 2.2857552 0
19.274715 14.675947 2.1153047 0
24.843708 14.772265 2.0178037 0
29.49719 14.821764 2.3050332 0
29.683142 14.768053 2.3150082 0
30.213303 14.651051 2.3446546 0
35.479286 14.578046 2.0077119 0
42.689899 14.761672 2.3647478 0
10.523848 15.064644 2.2504392 0
12.479103 15.197906 2.4086256 0
12.719443 15.059934 2.3144381 0
13.290817 15.025847 2.1921296 0
24.720062 15.06631 2.0209844 0
29.369471 15.099449 2.3058701 0
29.708277 15.155703 2.3287501 0
42.668194 15.247636 2.3721273 0
25.363352 15.729012 2.0835793 0
42.650406 15.611738 2.377727 0
-3.0613973 16.064535 2.0020695 0
-2.808358 16.034283 2.2231777 0
27.977242 17.895603 2.3189843 0
28.198442 17.852798 2.3304243 0
16.796349 18.30781 2.1694808 0
5.1587839 19.59676 2.3290918 0
10.230101 19.948727 2.3512633 0
10.192466 20.261522 2.3787892 0
10.161132 20.707825 2.2454453 0
25.330162 22.92334 2.3855319 0
28.778532 25.342081 2.0071189 0
29.313087 25.326792 2.0277042 0
29.767183 25.321974 2.0456033 0
19.268194 25.670952 2.2411361 0
21.864286 25.592783 2.350421 0
13.797144 29.766855 2.2908726 0
14.161415 29.701887 2.2975924 0
19.849606 54.3325 2.0183077 0
20.209 54.338474 2.0228448 0
20.696692 54.350559 2.0292428 0
21.277521 54.347675 2.0364554 0
21.768166 54.349144 2.0428071 0
22.257578 54.349915 2.0492518 0
22.744919 54.327072 2.055022 0
23.242249 54.323364 2.0616763 0
23.74054 54.320686 2.0684931 0
9.3212194 56.639301 2.0028124 0
9.2786827 57.496792 2.0321279 0
5.2065873 64.794159 2.2682812 0
5.6944342 64.590027 2.2626042 0
6.2202034 64.779671 2.2708869 0
9.8144131 68.029922 2.3985724 0
9.3048639 68.738876 2.420629 0
9.6051064 68.54023 2.4151847 0
8.2034149 -79.931328 2.8042443 0
8.3931408 -79.324753 2.7838631 0
15.832573 -74.575485 2.6605978 0
16.479176 -73.661346 2.6342142 0
16.761162 -73.823174 2.641892 0
14.336747 -70.2117 2.5007582 0
-4.6575279 -55.604908 2.9218118 0
-4.4156246 -55.626595 2.9219165 0
12.726703 -55.337673 2.9733105 0
12.711897 -54.488247 2.9297669 0
12.690937 -53.635586 2.886014 0
12.645952 -52.80043 2.8428893 0
12.638677 -52.042007 2.8041604 0
12.601497 -51.208107 2.761245 0
12.583619 -50.459442 2.722935 0
22.128769 -50.025238 2.8642421 0
22.69792 -50.052624 2.8777447 0
23.249363 -50.019211 2.8882122 0
23.723509 -50.034069 2.8994815 0
24.289139 -50.061024 2.9135773 0
