# .PCD v0.7 - Point Cloud Data file format
VERSION 0.7
FIELDS x y z intensity
SIZE 4 4 4 4
TYPE F F F F
COUNT 1 1 1 1
WIDTH 1496
HEIGHT 1
VIEWPOINT 0 0 0 1 0 0 0
POINTS 1496
DATA ascii
15.007681 6.9851365 -0.28810436 0
21.703005 6.9147735 -0.3967514 0
-10.327286 7.0255456 -0.36210492 0
-8.2670383 7.2321386 -0.3053962 0
-7.8141208 7.360424 -0.18655123 0
-6.8152184 7.4712052 -0.35146785 0
14.975849 7.053072 -0.2881043 0
21.285713 7.3118348 -0.39202294 0
21.632816 7.2274194 -0.39728659 0
-6.869729 7.5593996 -0.17745607 0
-6.2412786 7.6983724 -0.25523239 0
-5.9008298 7.8322358 -0.26108363 0
21.275015 7.7259984 -0.39424986 0
-5.8640571 8.298974 -0.28481713 0
18.12196 8.0226927 -0.34509227 0
-5.9557452 8.8084192 -0.26889375 0
17.956131 8.8885698 -0.34888521 0
18.071829 8.702363 -0.34927499 0
-6.047133 9.3222666 -0.38636068 0
-5.9762797 9.1562748 -0.26117977 0
17.919678 9.0450611 -0.34953678 0
-6.0997362 9.7334814 -0.37125516 0
17.47315 9.9043922 -0.34974623 0
17.548235 9.7295828 -0.34939718 0
18.245106 9.7119884 -0.35993841 0
-6.2132907 10.297653 -0.26962623 0
17.373775 10.16995 -0.35056067 0
-6.2805719 10.749853 -0.32484004 0
15.27768 10.923686 -0.32698831 0
-6.3191905 11.235909 -0.32597998 0
15.215401 11.024015 -0.32712793 0
-11.681995 11.616966 -0.28673139 0
-11.08041 11.673512 -0.28009951 0
-10.934115 11.562513 -0.27693477 0
-6.3534207 11.74048 -0.34797269 0
-6.4097242 12.264475 -0.37471274 0
-6.4611816 12.683014 -0.24761473 0
-6.8551159 13.900482 -0.26969787 0
-7.1180105 14.304398 -0.27805173 0
-6.7442093 14.385088 -0.27648801 0
-6.592752 14.740807 -0.28102565 0
-6.549861 15.214561 -0.28829628 0
-6.4503393 15.375359 -0.29019859 0
-6.7169628 16.890789 -0.31644702 0
-6.7845664 17.298412 -0.32349783 0
-6.8932767 18.404598 -0.34220678 0
-6.8516607 18.741829 -0.34747741 0
-7.5689802 21.713196 -0.40053272 0
-7.1750698 21.764147 -0.39917144 0
-6.7819557 21.58626 -0.39411023 0
-7.2713509 22.065273 -0.40468639 0
-6.7336545 22.026356 -0.40119591 0
-6.4605045 22.370394 -0.40559393 0
-7.7206659 22.597982 -0.41599557 0
-6.731987 22.653278 -0.41166735 0
-6.2761145 22.79887 -0.4119266 0
-5.8601866 22.947046 -0.41256094 0
-5.7313542 23.355537 -0.41892755 0
-5.5994902 24.221512 -0.43309891 0
-5.4865923 24.235065 -0.43288946 0
-6.0129571 24.842924 -0.44531557 0
-5.7231941 24.754581 -0.44266284 0
-5.5081534 25.062086 -0.44706085 0
-5.4281235 25.265663 -0.45023718 0
-5.369709 26.176842 -0.46559528 0
25.713894 -70.522484 0 0
32.372696 -70.87915 0 0
32.846363 -70.735878 0 0
33.345924 -70.663223 0 0
33.738823 -70.63176 0 0
25.441956 -70.463715 0 0
25.8538 -70.219879 0 0
26.428362 -70.411682 0 0
26.689787 -70.139603 0 0
33.88792 -70.405014 0 0
25.944702 -69.789604 0 0
26.947151 -69.824745 0 0
27.214277 -69.862755 0 0
28.057362 -69.537079 0 0
40.278809 -69.617584 0 0
40.734444 -69.646507 0 0
27.385923 -69.352791 0 0
27.694427 -69.195801 0 0
43.384857 -68.914848 0 0
43.735126 -68.776184 0 0
47.271095 -68.364601 0 0
33.819912 -67.528587 0 0
33.847572 -67.084892 0 0
34.119415 -67.09964 0 0
9.7498159 -66.63868 0 0
9.81497 -65.642418 0 0
34.305386 -65.195221 0 0
34.583309 -65.00528 0 0
34.808159 -64.962318 0 0
36.378418 -64.238617 0 0
7.2647052 -57.059528 0 0
6.6726742 -56.584061 0 0
6.8135028 -56.33762 0 0
7.3645358 -56.429596 0 0
5.6253018 -55.037411 0 0
6.1792593 -54.607567 0 0
5.364255 -54.163155 0 0
5.1510372 -53.729786 0 0
5.3548989 -50.088654 0 0
3.7914987 -42.238308 0 0
3.8930926 -41.96796 0 0
3.5772307 -41.305527 0 0
30.735016 -40.160717 0 0
30.901775 -39.870934 0 0
31.115067 -39.629932 0 0
23.976948 -37.436001 0 0
24.239321 -37.326904 0 0
24.222244 -36.555336 0 0
24.612148 -36.773804 0 0
2.0805416 -36.28249 0 0
20.94515 -35.543915 0 0
21.069067 -35.512463 0 0
20.16153 -33.028835 0 0
20.279526 -32.878948 0 0
29.469692 -31.691664 0 0
29.541613 -31.56987 0 0
30.237795 -31.510817 0 0
30.597385 -31.597464 0 0
30.753338 -31.361721 0 0
31.229227 -31.257618 0 0
39.245659 -30.786381 0 0
39.555332 -30.740831 0 0
40.32476 -30.744577 0 0
21.763536 -30.144693 0 0
39.268921 -30.221848 0 0
39.726002 -30.091288 0 0
40.975506 -30.445368 0 0
41.057915 -30.307209 0 0
39.576099 -29.685331 0 0
40.804672 -29.725864 0 0
41.118168 -29.757048 0 0
-0.86309421 -27.730711 0 0
-0.9382906 -27.384069 0 0
0.27225247 -26.617043 0 0
28.436598 -26.684427 0 0
28.523209 -26.597696 0 0
83.308411 -26.744768 0 0
-1.056636 -26.066732 0 0
-0.97473234 -26.069923 0 0
-0.2070892 -26.246513 0 0
0.25436756 -26.307583 0.28662086 0
28.583544 -26.242081 0 0
29.057507 -26.264126 0 0
82.894051 -26.054184 0 0
83.265564 -26.458229 0 0
-0.19506414 -25.645027 0.2233559 0
-1.1094761 -25.407928 0 0
-0.093932033 -25.404104 0.44259301 0
-1.2028787 -24.765003 0.21721265 0
-0.32722253 -24.950203 0.43470454 0
-1.1149908 -24.354893 0.42472178 0
-0.99522221 -24.244034 0.42269728 0
20.386143 -24.071388 0 0
20.449104 -23.770554 0 0
20.723455 -23.712585 0 0
26.996342 -22.482544 0 0
27.110308 -22.298653 0 0
-1.5765994 -21.540493 0 0
-1.3293529 -21.603899 0.20942111 0
-1.6690203 -21.364765 0.14865263 0
-1.4726075 -21.342144 0.37257397 0
23.298483 -20.727268 0 0
-2.5805349 -19.899496 0 0
-2.2383931 -19.783516 0.16114388 0
-1.9055851 -19.863178 0.27838683 0
-2.7202544 -19.33437 0.33997288 0
-2.4531045 -19.406715 0.34060115 0
26.846363 -19.111397 0 0
26.957403 -18.999691 0 0
27.202286 -18.795002 0 0
27.270399 -18.15996 0 0
27.463318 -17.801544 0 0
27.856409 -17.627693 0 0
28.051542 -17.525467 0 0
27.272301 -17.49259 0 0
28.193695 -17.369478 0 0
87.536781 -16.553186 0 0
-3.0701706 -16.066954 0.28468364 0
18.669821 -16.098967 0.42946881 0
87.505684 -16.263216 0 0
-2.9814329 -15.859891 0.28084415 0
18.72286 -15.867708 0.18335997 0
87.551712 -15.845356 0 0
25.484062 -15.049714 0 0
25.648514 -15.038411 0 0
25.710779 -14.756727 0 0
26.238401 -14.573111 0 0
-3.3583336 -14.299042 0 0
-2.4796259 -14.143703 0.49976078 0
26.466959 -14.381981 0 0
26.646574 -14.314679 0 0
-3.3401916 -13.556593 0.24286769 0
-3.6974521 -13.32865 0 0
-2.4013531 -13.218251 0.46746716 0
-4.5850377 -12.563611 0.23260568 0
-3.6041121 -12.760098 0.27136919 0
-3.1866531 -12.767831 0.21792568 0
-2.7658844 -12.832292 0.26065931 0
-2.4692612 -12.860726 0.39897966 0
-4.4480333 -12.302758 0.22750957 0
-3.6784277 -12.287677 0.22127421 0
-3.190542 -12.246517 0.32867715 0
-2.9770327 -12.338045 0 0
-4.1257696 -11.764765 0 0
-3.7532413 -11.680267 0.14248145 0
-3.466182 -11.624603 0.20982637 0
21.336084 -11.810946 0.4248381 0
25.957941 -11.755692 0.49655586 0
87.209854 -11.525365 0 0
-3.6812522 -11.346128 0.27586678 0
-3.4044652 -11.366021 0.41265166 0
24.849304 -11.247217 0 0
25.348169 -11.253184 0.16205142 0
25.892256 -11.051051 0.24614872 0
26.044411 -11.310624 0.49478734 0
87.241669 -11.250826 0 0
24.902561 -10.901371 0 0
25.432917 -10.718494 0.24028473 0
25.804735 -10.795447 0.20981781 0
26.28368 -10.704238 0.49453136 0
25.331078 -10.297411 0 0
25.981005 -10.258214 0 0
26.180279 -10.219374 0 0
25.935144 -9.753911 0 0
87.086487 -9.7271376 0 0
87.063507 -9.1790123 0 0
-3.86971 -8.5431595 0.16286585 0
-3.3841248 -8.5464859 0 0
16.567997 -8.6600475 0.24421151 0
-3.6634898 -8.068716 0.15292981 0
-3.2071083 -8.1971378 0.20369655 0
-2.683166 -8.2819271 0.30236924 0
16.460909 -8.3315315 0.32119408 0
16.714592 -8.2248707 0.13319266 0
17.037167 -8.0614195 0 0
87.012535 -8.2220993 0 0
-4.0746865 -7.5221434 0.29706454 0
-3.5933249 -7.7948556 0.15016834 0
-3.2666585 -7.6763759 0.16768989 0
-2.8057404 -7.6981606 0.19703931 0
16.94441 -7.9889488 0.32615057 0
24.665596 -7.6208487 0.44978338 0
87.002045 -7.9458961 0 0
-6.1180553 -7.1623135 0.16275626 0
-5.7072477 -7.0757685 0.078116968 0
-5.4376159 -7.1563773 0.46851149 0
-4.7528381 -7.0787792 0.44433224 0
-4.2775278 -7.135509 0.1433696 0
-3.795079 -7.1341791 0.19633751 0
-3.2972062 -7.3192215 0.30960524 0
-2.8478866 -7.4116507 0.23440123 0
-2.4355817 -7.4353523 0 0
24.785786 -7.2545152 0.13492106 0
25.098104 -7.3827186 0.45581031 0
-7.2406535 -6.5120049 0.33838552 0
-6.0581865 -6.8172879 0 0
-5.6867595 -6.690012 0.17052335 0
-5.2441854 -6.7046914 0.29491109 0
-4.6206751 -6.6762528 0.07145603 0
-4.1733789 -6.6482105 0.23570213 0
-3.7610393 -6.7326889 0.15728551 0
-3.3218999 -6.6084042 0.15243815 0
14.472523 -6.7096314 0.13882808 0
14.521425 -6.6241598 0.13892116 0
24.41497 -6.6489668 0.44084778 0
24.606546 -6.7269492 0 0
25.188486 -6.6366987 0 0
25.690641 -6.5970259 0 0
-7.2610765 -6.4892254 0.33838552 0
-6.1221123 -6.0204911 0.44747239 0
-5.592855 -6.3973861 0.14763644 0
-5.2334342 -6.2651582 0.27924055 0
-4.794631 -6.2452135 0.18163429 0
-4.2717466 -6.3012342 0.27545175 0
-3.7788024 -6.3431873 0.20216571 0
-3.2784855 -6.3446813 0.33467391 0
24.391251 -6.3814111 0.29371238 0
24.857292 -6.2120924 0.24769232 0
-6.2252536 -5.8171372 0 0
-5.7761102 -5.7234955 0.24400915 0
-5.4147782 -5.6243296 0.19274095 0
-4.6795506 -5.8229709 0.24635847 0
-4.2142386 -5.7029591 0.13051352 0
-3.8484399 -5.6370444 0.08876054 0
24.8862 -5.9526463 0.4458043 0
-7.4432306 -5.2609148 0.15825842 0
-6.8456717 -5.1579952 0.2221138 0
-6.1845098 -5.0733147 0.37084094 0
-5.802331 -5.1977997 0.26915663 0
-5.267765 -5.2464533 0.2200878 0
-4.5872192 -5.0568123 0.18126725 0
-4.2385139 -5.4796658 0.060106091 0
-9.8076096 -4.6206112 0.37691456 0
-7.8417482 -4.5844307 0.27422822 0
-7.3833423 -4.6711226 0.30224213 0
-6.8487582 -4.6170158 0.14278647 0
-6.2342448 -4.7674947 0.22459157 0
-5.8018909 -4.7521029 0.23803879 0
-5.1163254 -4.6081972 0.10294045 0
-4.6995745 -4.837903 0.22829828 0
-4.3039765 -4.6597204 0.24739206 0
23.130438 -4.7747402 0 0
-7.6237512 -4.3075633 0.25564954 0
-7.264142 -4.2167583 0.24417712 0
-6.7986913 -4.2935281 0.10918175 0
-6.2370572 -4.2159638 0.12230856 0
-5.7127547 -4.2248702 0.19456477 0
-5.3087449 -4.2945714 0.13210075 0
-4.765038 -4.2215652 0.32228002 0
-4.300025 -4.3990259 0.052950606 0
19.426682 -4.2939916 0.17312787 0
-8.2855949 -3.629565 0.31456953 0
-7.6807513 -3.6673098 0.13943188 0
-7.2444034 -3.767561 0.22768593 0
-6.9240432 -3.7278976 0.13642238 0
-6.1962442 -3.9639316 0.25518513 0
-5.7538157 -3.7115095 0.28213385 0
-4.785171 -3.997489 0.10799549 0
-9.0506868 -3.1164677 0.11041556 0
-8.7914906 -3.2721875 0.079735428 0
-8.2606106 -3.3520353 0.19181401 0
-7.7007155 -3.2782295 0.20116113 0
-6.9915462 -3.3335154 0.40340555 0
24.562828 -3.0074763 0.21553722 0
-8.6675701 -2.6996856 0.30325899 0
-8.2724781 -2.7273321 0.31801865 0
-7.7889314 -2.8937957 0.30800459 0
24.577139 -2.9046946 0.14371476 0
-8.7178516 -2.4579816 0.472175 0
-8.1531096 -2.2701433 0.41926694 0
-7.7485199 -2.3305509 0.28421912 0
-7.305934 -2.0203817 0 0
-6.6473722 -2.4442055 0.36865446 0
-6.4681163 -2.302866 0.43692711 0
-5.8666029 -2.1707132 0.32474685 0
-5.1834826 -2.4441335 0.44739711 0
-4.9882584 -2.4685328 0.38582307 0
23.323807 -2.1026435 0.30602795 0
-9.8450146 -1.6275076 0.17333731 0
-8.9128933 -1.5032594 0.15693203 0
-8.2375021 -1.6900685 0.21663809 0
-7.7326264 -1.7649184 0.071836568 0
-7.1791964 -1.6591532 0.1556655 0
-6.7637305 -1.7789801 0.17815147 0
-6.3350482 -1.9224288 0.0715985 0
-5.933826 -1.997383 0.43444332 0
-5.0773931 -1.7972991 0.46701533 0
-4.9838362 -1.8150929 0.45983371 0
23.375629 -1.7342203 0.1224391 0
23.515499 -1.8503411 0.41089946 0
-9.1485567 -1.479977 0.48316556 0
-8.6431427 -1.2501835 0.20942049 0
-8.2461252 -1.2005005 0.15462525 0
-7.7950916 -1.2998613 0.18111511 0
-7.2641063 -1.2375052 0.24266659 0
-6.7803559 -1.2741256 0.28512177 0
-5.8967109 -1.1628461 0.17388617 0
23.214218 -1.2916731 0.40500054 0
23.699251 -1.2403296 0.052025624 0
24.147606 -1.0038805 0.42102182 0
-9.1903248 -0.91272223 0.48149079 0
-8.6802893 -0.88015962 0.10010339 0
-8.3455114 -0.95253766 0.24990883 0
-7.7315249 -0.91539985 0.40549898 0
-7.237824 -0.81879592 0.27122915 0
-6.7936096 -0.71701479 0.33788294 0
-6.1886001 -0.61687952 0.27899113 0
-5.6508961 -0.73685902 0.37911665 0
23.294704 -0.67899805 0.40594298 0
23.588079 -0.80500287 0.13775766 0
-8.1671371 -0.14188875 0.070786953 0
-7.7295527 -0.28955543 0.13417409 0
-7.1310744 -0.21822011 0.36976758 0
-6.7438736 -0.24659078 0.33294386 0
-6.2818594 -0.25693297 0.14987974 0
-5.936255 -0.2260216 0.20576742 0
15.20046 -0.25322145 0.15883784 0
86.469666 -0.25396231 0 0
-8.6538877 0.15741512 0.074975535 0
-8.1197052 0.16365927 0.093614697 0
-7.8494248 0.21874122 0.090554714 0
-7.1646328 0.27069932 0.28076768 0
-6.7820406 0.29706886 0.26968935 0
-6.3460603 0.094072253 0.15573715 0
0 0 0 0
33.169121 0.27029091 0 0
-8.5932293 0.98562038 0.30099702 0
-8.0689659 0.86813617 0.079705864 0
-7.798902 0.72799397 0.046190705 0
-7.2049546 0.6766783 0.24226785 0
-6.7268624 0.72228557 0.32715291 0
-6.3886957 0.83326888 0.28356048 0
-9.2867041 1.1567512 0.3251237 0
-8.6408997 1.0444238 0.18981802 0
-8.3834381 1.2337236 0.22073212 0
-7.6667557 1.2319068 0.052948426 0
-7.1885262 1.3834184 0.21231949 0
-6.7151513 1.252598 0.24496837 0
-6.3563104 1.280161 0.18407905 0
-5.9128695 1.466833 0 0
86.3312 1.4944685 0 0
-9.1561432 1.5277624 0.16119042 0
-8.8869371 1.7907207 0.31511185 0
-6.61623 1.661725 0.24126452 0
-6.2858262 1.7842301 0.16336893 0
-5.8922019 1.7363889 0.25644618 0
12.972256 1.7393929 0.22757544 0
23.346949 1.8528334 0.40796748 0
86.322083 1.7655909 0 0
-10.20194 2.3192582 0.24156964 0
-9.6288967 2.0207491 0.17089397 0
-9.0565996 2.4999948 0.48986453 0
-8.8711195 2.3596628 0.47855997 0
-6.7429414 2.2938807 0.23839639 0
-6.3233824 2.1263573 0.087157547 0
22.399693 2.4813931 0.39253953 0
22.904625 2.2849946 0.40095153 0
23.093885 2.0491102 0.40384868 0
86.275085 2.156534 0 0
-10.731595 2.6630905 0.38445285 0
-9.7882643 2.8615048 0.35443929 0
-9.4073496 2.6868007 0.33996764 0
-8.5373087 2.9197264 0.47034323 0
-8.4693794 2.9845946 0.4680928 0
-6.4376612 2.6432996 0.48327285 0
17.848341 2.9320738 0.2099641 0
21.888611 2.6300175 0.38397619 0
22.40696 2.6590667 0.19626977 0
22.849163 2.6385629 0 0
-10.638512 3.4710467 0.19448961 0
-10.19827 3.2396121 0.18593793 0
-8.2378635 3.1455874 0.34299862 0
17.817207 3.0486076 0 0
21.616726 3.2021217 0.38060206 0
22.152275 3.3289351 0 0
-11.290094 3.9777083 0.20810249 0
-10.707274 3.8019235 0.36678806 0
-10.043198 3.7647619 0.37286621 0
-9.8108253 3.8246582 0.36606085 0
-9.2412014 3.7520359 0.24480057 0
22.36187 3.5387564 0 0
22.648247 3.8228731 0.40007895 0
-11.775158 4.376524 0.21843432 0
-11.101472 4.3055878 0.20702043 0
-10.755464 4.2069187 0.065936781 0
-10.379117 4.318603 0.19452979 0
-9.4790926 4.1090655 0.23064539 0
-5.6207447 4.3071775 0.27354279 0
-5.3978567 4.3787684 0.23917072 0
-11.822712 4.6822824 0 0
-11.278764 4.6406813 0.14276068 0
-10.937804 4.8514094 0 0
-10.456982 4.540318 0 0
-5.3434682 4.5176377 0.30333516 0
-10.688397 5.1491055 0.41262373 0
-8.2146654 5.3235946 0.34015378 0
-7.879252 5.4074078 0.33203381 0
-8.3453083 5.5386143 0.34808758 0
33.9011 5.9432125 0 0
-10.784315 6.3917341 0.33515257 0
21.115839 6.1435113 0.38302216 0
21.692566 6.4553585 0.39421496 0
33.889225 6.2379766 0 0
-10.531031 6.6037493 0.30227736 0
-10.47161 6.9717555 0 0
14.994619 6.9687757 0.14387763 0
20.399326 6.8056669 0.37452862 0
20.647696 6.8895907 0.37910119 0
21.806246 6.7338276 0.17991211 0
33.892315 6.7472382 0 0
-10.500747 7.0470772 0.21990032 0
-10.377212 7.1036558 0.15310647 0
-8.207962 7.2267857 0.015701348 0
-7.7647624 7.3515735 0.033097975 0
-7.299386 7.2237754 0.17701562 0
14.959536 7.0536437 0.11515796 0
20.687122 7.1159554 0.3810209 0
21.334328 7.4009442 0.12993899 0
21.607494 7.1708832 0 0
33.89003 7.2408762 0 0
-7.2090387 7.7827697 0.36881787 0
-6.7417135 7.6450853 0.15428585 0
-6.2158723 7.7088327 0.092290819 0
-5.9014301 7.8531895 0.17063217 0
21.354143 7.6951604 0.21592118 0
21.7036 7.5036969 0 0
33.88311 7.7359419 0 0
-5.8956552 8.3081636 0.083933212 0
21.342628 8.4261513 0.26611429 0
21.600485 8.2251263 0.057652775 0
22.220327 8.3699522 0.41362202 0
33.8657 8.2323265 0 0
-6.0183783 8.9533768 0 0
-5.9273582 8.7045488 0.1213175 0
21.27169 8.5472221 0.39931104 0
22.262936 8.583971 0.41564649 0
-6.0376024 9.2974758 0.072697997 0
-5.9989634 9.131916 0 0
-6.093204 9.6864491 0.110051 0
17.616003 9.8989382 0 0
-6.2118459 10.25242 0.06011606 0
17.340752 10.172257 0 0
17.623653 10.156958 0 0
-6.3034601 10.775289 0.096950054 0
15.260043 10.933567 0.16350578 0
-6.3453221 11.218517 0.074502379 0
15.194988 11.030713 0.16356397 0
-13.304503 11.875214 0.3104434 0
-12.298281 11.75639 0.29613245 0
-11.779277 11.725215 0.28926781 0
-11.072121 11.868114 0.282473 0
-10.979505 11.914065 0.28196108 0
-6.3821969 11.763415 0 0
-14.197258 12.32067 0.3272815 0
-13.713684 12.125225 0.31868094 0
-11.37605 12.041821 0.28831378 0
-6.5012293 12.347015 0.24272807 0
-6.4191451 12.123576 0.07897795 0
44.405613 12.413569 0 0
-6.7439613 13.877064 0.13368544 0
-7.0905519 14.166238 0.18337826 0
-6.7351856 14.182324 0.10271613 0
-6.7678552 14.91069 0 0
-6.6918654 15.157172 0.18524982 0
-6.579165 15.573882 0.098001085 0
-6.4474669 15.526073 0.29260704 0
-6.6846814 16.730104 0 0
-6.8130355 17.363258 0 0
-36.14378 17.697962 0 0
-35.591499 17.753654 0 0
-35.357704 17.636274 0 0
-6.8357897 17.745016 0 0
-35.476974 18.180315 0 0
-6.8669572 18.228365 0.19351228 0
-35.679321 18.779343 0 0
-35.358101 18.958649 0 0
-6.8589096 18.682285 0.17337219 0
-35.541145 19.200914 0 0
-35.252323 19.188107 0 0
-6.9464726 19.200611 0.17878245 0
-7.4526162 21.302101 0 0
-7.5534568 21.73432 0.13431372 0
-7.3445401 21.861818 0.13443007 0
-6.8607287 21.755936 0 0
-7.2385521 22.23423 0.10249799 0
-6.86835 22.386154 0.10230601 0
-7.0239892 22.761385 0.4149484 0
-6.7291174 22.81321 0.32255152 0
-6.3441863 22.771748 0.25777203 0
-6.2447271 23.241049 0 0
-6.0245047 23.739603 0 0
-5.1290741 23.924362 0 0
-8.5139465 24.342249 0.44929478 0
-8.3198023 24.028692 0.44301191 0
-6.2170639 24.081751 0.43329439 0
-5.7511764 24.195002 0.30289003 0
-5.4586992 24.352005 0.43477434 0
-6.0629292 24.702997 0 0
-5.7300954 24.65444 0 0
-5.2848248 24.655111 0.43929449 0
-5.3895011 26.330181 0 0
-5.6344767 28.43932 0 0
-5.4567771 28.213285 0 0
-5.6117806 29.769791 0 0
35.256454 31.32181 0 0
40.887138 31.940657 0 0
40.733128 32.026936 0 0
-6.2317519 33.944855 0 0
-6.2079983 34.424862 0 0
-5.7701588 34.32637 0 0
-6.048543 34.717178 0 0
-5.661706 34.984974 0 0
-5.663075 35.259762 0 0
17.402462 35.165733 0 0
17.516233 35.118141 0 0
-5.3928747 35.820412 0 0
-5.2479224 36.007721 0 0
-50.703754 36.730782 0 0
-49.812466 37.149899 0 0
-49.271679 37.230328 0 0
-5.2746029 37.38382 0 0
-5.0744138 37.675903 0 0
-4.7639523 37.901634 0 0
-4.7075267 38.058102 0 0
-4.4801755 38.190247 0 0
15.69075 38.825333 0 0
38.263363 38.86356 0 0
38.813133 38.807487 0 0
39.354908 38.980515 0 0
39.708656 38.974869 0 0
40.199821 38.963959 0 0
40.686008 38.949326 0 0
41.151955 38.909317 0 0
41.67186 38.907997 0 0
42.188255 38.910164 0 0
42.749863 38.9338 0 0
47.401711 38.957062 0 0
47.722466 38.858612 0 0
55.385265 38.988647 0 0
55.860481 38.93058 0 0
56.754982 38.778763 0 0
57.316471 38.767612 0 0
59.831593 38.934246 0 0
60.308727 38.841099 0 0
60.765774 38.732216 0 0
61.188194 38.746109 0 0
61.577148 38.721863 0 0
-4.4365015 39.395073 0 0
38.119835 39.291145 0 0
44.798294 39.045738 0 0
45.22184 39.05513 0 0
45.76466 39.024517 0 0
46.190735 39.020012 0 0
46.76844 39.028702 0 0
47.165249 39.011223 0 0
50.323196 39.054871 0 0
50.692547 39.087334 0 0
51.157372 39.076118 0 0
51.815578 39.065647 0 0
52.332211 39.083721 0 0
52.686028 39.077301 0 0
53.053131 39.105598 0 0
59.55497 39.006752 0 0
64.47567 39.159912 0 0
64.872421 39.122383 0 0
65.290169 39.095066 0 0
-4.2152691 39.670776 0 0
38.121887 39.761497 0 0
-4.0735083 40.10178 0 0
-3.9033623 40.317577 0 0
38.134018 40.263786 0 0
38.114037 40.752243 0 0
-3.7851777 41.037941 0 0
38.092022 41.245049 0 0
-3.6474996 41.696854 0 0
-3.4574018 41.78936 0 0
19.74247 41.761917 0 0
38.107689 41.770916 0 0
-3.2248011 44.890404 0 0
-3.0462339 45.049263 0 0
-2.9136732 45.198322 0 0
30.905567 45.452122 0 0
20.316502 45.90527 0 0
20.693581 45.782555 0 0
20.220177 46.057011 0 0
36.434052 47.310997 0 0
36.668667 47.162407 0 0
-2.7139235 49.201183 0 0
-2.4479342 50.104378 0 0
21.253994 51.199863 0 0
21.827202 51.014771 0 0
22.039692 51.067127 0 0
-1.8773489 53.859367 0 0
-2.1373019 54.009865 0 0
33.78154 54.748802 0 0
33.805862 55.175236 0 0
36.697693 56.194702 0 0
39.870113 56.339527 0 0
40.239983 56.317116 0 0
34.586506 59.090179 0 0
-2.7857809 134.20723 0 0
-2.365855 134.2713 0 0
7.2943912 -56.740417 0.99771905 0
6.9858446 -56.28363 0.98913264 0
6.3743496 -54.882729 0.96358228 0
6.6105866 -54.669533 0.96037096 0
4.0708785 -42.519207 0.7447291 0
4.323123 -41.744041 0.7317096 0
4.6319823 -41.508137 0.72818416 0
4.221406 -41.354919 0.72476351 0
3.3783047 -40.573544 0.70982426 0
3.5824924 -40.710548 0.7125119 0
3.2253342 -40.192802 0.7029829 0
3.7547293 -40.484211 0.70884699 0
30.458412 -40.075508 0.87778628 0
30.508898 -40.40353 0.8828823 0
3.0603263 -39.772503 0.69544351 0
30.722143 -39.805145 0.87684381 0
31.134943 -39.699699 0.87981069 0
2.9169776 -39.446415 0.68957949 0
31.12575 -39.432133 0.876041 0
2.4955008 -38.689846 0.67589682 0
2.6854534 -38.797348 0.67799115 0
23.049786 -37.034344 0.76057583 0
23.117708 -36.632904 0.7552703 0
24.846281 -36.784233 0.77397931 0
1.8887212 -36.273476 0.63317329 0
2.0031002 -36.275352 0.63331294 0
23.299599 -36.170681 0.75017422 0
23.708103 -36.177227 0.75415343 0
24.289869 -36.451004 0.76374054 0
20.885319 -35.599586 0.71959758 0
20.071877 -33.141983 0.67547792 0
26.392124 -33.217381 0.73970276 0
20.174618 -32.96701 0.6738025 0
26.198879 -32.667946 0.73010397 0
29.434412 -32.258957 0.76141363 0
29.683397 -32.125061 0.76263523 0
29.486757 -31.912266 0.75757408 0
30.096172 -31.882069 0.76445031 0
30.5275 -31.752859 0.76801062 0
30.494308 -31.426342 0.76350784 0
30.630871 -31.270794 0.76322865 0
39.50325 -31.113062 0.87687868 0
21.756088 -30.647312 0.65519822 0
39.358456 -30.704514 0.87049115 0
40.882801 -30.790012 0.89251608 0
42.466599 -30.554384 0.91234201 0
21.726288 -30.201626 0.64856631 0
39.43298 -30.273695 0.86691922 0
40.531086 -30.325886 0.8827427 0
41.220417 -30.052286 0.88958406 0
42.251015 -30.10313 0.9046979 0
39.486221 -29.93162 0.8640337 0
41.25309 -29.878054 0.88825768 0
39.783672 -29.378021 0.86240482 0
0.64706838 -26.556097 0.92595351 0
-1.599659 -26.131262 0.912552 0
0.84833705 -26.391287 0.92040443 0
1.1757226 -26.362717 0.919846 0
28.35675 -26.4526 0.67605972 0
28.577288 -26.324697 0.6773628 0
-1.6773714 -25.501486 0.89077479 0
-0.75762248 -25.226894 0.8796767 0
-0.16860402 -25.192167 0.87807131 0
0.14321819 -25.076473 0.87402296 0
-1.7093508 -24.802183 0.86648476 0
-1.1376787 -24.987007 0.8717894 0
-0.3188684 -24.611101 0.85782963 0
0.064271219 -24.681042 0.86020285 0
-0.99287105 -24.277065 0.8468014 0
-0.38553926 -24.006439 0.83675033 0
20.028418 -24.112864 0.54630685 0
20.550762 -24.119545 0.55226398 0
-0.23064372 -23.841482 0.83095706 0
0.39921969 -23.990191 0.83619189 0
20.285599 -23.812984 0.5451957 0
-1.1273611 -21.809715 0.76094866 0
-1.6997364 -21.277351 0.74370831 0
23.103502 -20.887781 0.5428164 0
-2.8021624 -19.264658 0.67814374 0
-2.1623604 -19.4555 0.6819129 0
-1.9496872 -19.450783 0.68095893 0
26.834368 -18.67609 0.56983274 0
27.233078 -18.713812 0.5759294 0
27.61759 -18.725111 0.58158404 0
27.390442 -18.385956 0.57498693 0
27.60487 -18.160551 0.5759294 0
27.754467 -17.953552 0.57613885 0
18.65917 -15.797223 0.85208279 0
27.086872 -15.610836 0.54486412 0
-2.5235617 -14.10125 0.99835461 0
-2.219121 -14.095828 0.92558938 0
-1.8581699 -14.316292 0.75405645 0
-4.3192654 -13.628513 0.74672943 0
-2.7334111 -13.649504 0.97010332 0
-2.2809293 -13.862225 0.85625184 0
-1.7473211 -13.9801 0.73584354 0
-3.5662582 -13.042886 0.70611668 0
-3.1616592 -13.15038 0.94245648 0
-2.8822594 -13.084648 0.81692874 0
-4.0859499 -12.755377 0.69941771 0
-3.5651617 -12.819231 0.92706358 0
-3.2281876 -12.868609 0.78900248 0
-2.7094193 -12.762249 0.70642996 0
-2.4901969 -12.798305 0.68078613 0
-3.6122737 -12.301839 0.86824656 0
-3.2677958 -12.319899 0.7603218 0
-3.1516647 -11.972638 0.64631414 0
-2.9029784 -11.909567 0.85381925 0
21.33161 -11.815312 0.84987259 0
-3.4377139 -11.275614 0.6152615 0
26.345963 -10.62748 0.9903779 0
26.986988 -10.361465 0.50374621 0
27.026716 -10.279922 0.50388587 0
16.46283 -8.5547113 0.64619911 0
16.695131 -8.7301512 0.92973542 0
-3.0867045 -8.1786413 0.72169828 0
-2.8108203 -8.3108149 0.76344073 0
16.49502 -8.4750471 0.64591992 0
16.778116 -8.2825985 0.82331389 0
17.007404 -8.0554829 0.65548229 0
-5.6714988 -7.5946641 0.99120855 0
-3.7381153 -7.5404611 0.65920466 0
-3.1255705 -7.7889695 0.79128808 0
-2.8183324 -7.6448998 0.79242474 0
16.920691 -7.9858737 0.97805434 0
-5.6248918 -7.2552118 0.84559923 0
-5.2637262 -7.2420397 0.780168 0
-4.7701879 -7.1183333 0.84572744 0
-4.1493845 -7.2373486 0.8717674 0
-3.720382 -7.2860427 0.71092463 0
-3.2537239 -7.3560338 0.78255612 0
-2.7788665 -7.3426752 0.74313921 0
-6.1258922 -6.9241414 0.80462188 0
-5.5830379 -6.8167968 0.7666648 0
-5.228713 -6.7169137 0.75632274 0
-4.7233524 -6.6714768 0.71772504 0
-4.1994543 -6.6632433 0.76118171 0
-3.7908301 -6.6876874 0.70279378 0
-3.2870388 -6.7043424 0.66435039 0
14.46156 -6.7113824 0.69404525 0
14.520096 -6.6112924 0.64815265 0
25.16054 -6.7215118 0.90775919 0
-7.3837872 -6.023385 0.66296554 0
-5.5604868 -6.357069 0.68579602 0
-5.2766886 -6.2169437 0.74795699 0
-4.810164 -6.3175497 0.686777 0
-4.2296042 -6.3833003 0.74794668 0
-3.7358892 -6.3277564 0.6973412 0
-3.2536287 -6.2645359 0.78421658 0
-7.3012633 -5.792078 0.76888883 0
-6.7500787 -5.5953598 0.76290321 0
-6.1793737 -5.9177876 0.67058372 0
-5.674542 -5.7293282 0.85718954 0
-5.2529626 -5.7931514 0.82834053 0
-4.6771259 -5.8964276 0.84382921 0
-3.8812156 -5.9112167 0.71357638 0
-3.2568421 -5.850615 0.8408516 0
-7.6701307 -5.0340648 0.63820201 0
-6.7368097 -5.2381744 0.77953666 0
-6.1282296 -5.3673635 0.92254543 0
-5.6657476 -5.381814 0.62052667 0
-4.6061416 -5.0533104 0.77144384 0
-10.240858 -4.7607913 0.78635073 0
-9.9381075 -4.8219075 0.96219945 0
-7.6107087 -4.8828292 0.80948269 0
-7.3571134 -4.7328162 0.84845668 0
-6.644639 -4.7490988 0.75354481 0
-6.2361794 -4.7507725 0.79969567 0
-5.0698018 -4.7889194 0.72793627 0
-4.6529355 -4.8308797 0.68423766 0
-4.3449836 -4.5194921 0.54428762 0
-7.2694664 -4.2114711 0.71537292 0
-6.1397696 -4.2514424 0.77921891 0
-5.7869415 -4.2096801 0.74684715 0
-4.739058 -4.3716655 0.63574809 0
-4.4215231 -4.4619188 0.58947194 0
-8.6416473 -3.8371944 0.98873472 0
-7.1776633 -3.7620797 0.71902567 0
-6.9041243 -3.7018783 0.92129457 0
-5.7262115 -3.9682806 0.6053257 0
-5.4738374 -3.9130516 0.70215249 0
-8.291008 -3.1198645 0.61608917 0
-7.8571143 -3.3344676 0.59348804 0
-7.2289729 -3.2524204 0.62029171 0
24.540674 -3.0142641 0.86173832 0
-8.8951607 -2.5062962 0.96626109 0
-8.2493715 -2.7979436 0.64315689 0
-7.8023825 -2.7662914 0.68682903 0
-7.4328012 -2.9690156 0.5563218 0
-5.3438773 -2.7633381 0.78383845 0
24.554577 -2.8985744 0.86173832 0
-9.8301773 -2.3660457 0.88038921 0
-9.2842569 -2.4098649 0.80258018 0
-8.8998079 -2.2973444 0.93831092 0
-8.2090664 -2.3718789 0.68451482 0
-7.7595515 -2.2323954 0.68947273 0
-7.2634974 -2.171103 0.55370748 0
-6.6988597 -2.3860188 0.86722219 0
-6.2823668 -2.1508274 0.70913512 0
-5.7593088 -2.1534162 0.7530849 0
-5.3304858 -2.2637694 0.67827678 0
-4.8046532 -2.0584903 0.95022106 0
-8.8105125 -1.8217118 0.78300714 0
-8.3521166 -1.7780081 0.74253744 0
-7.7535319 -1.7246861 0.6912294 0
-7.3212943 -1.5972235 0.62659359 0
-6.8469043 -1.8440313 0.98979902 0
-6.2406569 -1.7964567 0.8077423 0
-5.7825947 -1.8064702 0.92491412 0
-5.2602525 -1.791984 0.83153993 0
-4.8581758 -1.8016433 0.86370903 0
22.993654 -1.6685971 0.80338645 0
23.009209 -1.5607667 0.80366558 0
-8.2603645 -1.3940932 0.72870916 0
-7.7496433 -1.2866806 0.80608076 0
-7.2285099 -1.196659 0.77073359 0
-6.673243 -1.2353073 0.79194152 0
-6.4087434 -1.0164618 0.90518188 0
-5.5197697 -1.4258041 0.99674052 0
-5.1828508 -1.146646 0.86911261 0
-4.8252306 -1.1426798 0.95465553 0
23.627541 -1.2718685 0.82460535 0
24.135384 -1.1485964 0.84210157 0
-8.420393 -0.93883955 0.67731583 0
-7.7105722 -0.87764966 0.809461 0
-7.229136 -0.71198446 0.79463196 0
-6.7185388 -0.62692028 0.80744183 0
-6.2787995 -0.68625259 0.76161903 0
-5.7381701 -0.68705028 0.70306593 0
-5.3398185 -0.90084034 0.75506926 0
23.973192 -0.88507289 0.8360523 0
24.060863 -0.99655378 0.83926308 0
-8.1560659 -0.17567626 0.68754661 0
-7.7298331 -0.11860584 0.82711357 0
-7.1548314 -0.21290934 0.80209839 0
-6.790853 -0.21794491 0.78298676 0
-6.3681388 -0.3378956 0.70674992 0
15.200902 -0.30142829 0.66168678 0
-8.7890549 0.49113864 0.6121828 0
-7.6260409 0.20340583 0.8924883 0
-7.1471896 0.21778151 0.76196122 0
-6.7161245 0.30844912 0.71071815 0
-6.4544244 0.29301637 0.59860045 0
-8.7309351 0.52812326 0.60827649 0
-7.145678 0.73635173 0.78966928 0
-6.8005233 0.72070664 0.76933753 0
-6.3795776 0.72786397 0.59766054 0
-9.486618 1.1138442 0.99887395 0
-7.885776 1.4841429 0.97934204 0
-7.1995158 1.1860409 0.78901869 0
-6.7630463 1.1822331 0.72627372 0
-6.3219013 1.1604562 0.68021864 0
-5.8255939 1.2747033 0.82269859 0
-10.241969 1.862411 0.54303783 0
-9.9764261 1.7818561 0.52859318 0
-8.6204185 1.8526282 0.76720291 0
-8.3609877 1.7154732 0.64406264 0
-7.7725463 1.6151388 0.86548936 0
-7.2033997 1.704646 0.72613364 0
-6.6924534 1.7087905 0.82409942 0
-6.3030806 1.7480271 0.71052605 0
-5.8261704 1.8019961 0.88934112 0
12.966336 1.7487493 0.81012774 0
23.296352 1.8762504 0.81448442 0
-8.965353 2.4467089 0.97169662 0
-8.4316511 2.4154992 0.76313567 0
-7.1391115 2.0154459 0.51536083 0
-6.718092 2.1823556 0.72307611 0
-6.2011518 2.2770317 0.68432182 0
21.639711 2.4582903 0.75885469 0
22.286003 2.3186123 0.78077155 0
22.692104 2.1127722 0.79417288 0
23.199598 2.0497653 0.81162274 0
-10.605799 2.8585706 0.57318342 0
-10.281007 2.66833 0.55413312 0
-9.2190495 2.759788 0.62696427 0
-8.7610607 2.7096951 0.73837018 0
-8.27038 2.7011874 0.60502112 0
-7.2231703 2.7487278 0.82624531 0
-6.2487946 2.6391866 0.94656271 0
17.868254 2.874577 0.78836405 0
21.469446 2.5041702 0.75313115 0
21.592379 2.6210935 0.75787741 0
-10.529969 3.0152705 0.57150865 0
-7.2663808 3.212733 0.69088352 0
21.719082 3.2550979 0.76524127 0
-10.339011 3.9195518 0.57695156 0
-9.6120682 3.7474327 0.71712828 0
-9.2777767 3.8436987 0.68199325 0
21.841169 3.7610703 0.77225608 0
22.276194 3.9652267 0.78844947 0
-10.59504 4.3933253 0.59861863 0
-10.1459 4.2466674 0.6381982 0
-9.1664953 4.2445455 0.70314521 0
-5.5333486 4.2925334 0.80701518 0
-5.4093456 4.3856096 0.78401381 0
-11.038496 4.9674001 0.84307677 0
-10.601809 4.6316919 0.70572793 0
-10.349368 4.7233224 0.65091336 0
-9.8304062 4.7645254 0.75981712 0
-9.3811302 4.8219442 0.82656598 0
-5.3543787 4.5052252 0.60799849 0
-11.005902 5.0152287 0.84237915 0
-10.81732 5.420886 0.63159031 0
-10.069211 5.0055976 0.58679074 0
-8.8640747 5.3177295 0.90014452 0
-8.2216473 5.272727 0.58576751 0
-10.786662 5.5932436 0.84628546 0
-8.5792723 5.7137713 0.80705011 0
-8.2192783 5.6965895 0.71516067 0
-7.9964805 5.7730632 0.85865837 0
21.918297 5.7210574 0.7893917 0
22.087296 5.8397155 0.79612732 0
-10.679564 6.4031506 0.65006495 0
-10.489257 6.3995595 0.64142948 0
-8.5677862 6.4308395 0.74574327 0
-8.4544067 6.122963 0.72658336 0
21.413883 6.4024525 0.77881718 0
21.666094 6.1917691 0.78521538 0
22.097878 6.0617223 0.79850048 0
33.904503 6.2606363 0.60097361 0
-10.809255 6.641901 0.66236389 0
21.766399 6.7670393 0.7943126 0
33.90229 6.7521563 0.6025548 0
-10.634809 7.0205503 0.88772082 0
-8.2413616 7.3282304 0.80646431 0
-7.5157833 7.4406009 0.92106193 0
-7.2960367 7.3168478 0.72043914 0
-6.899075 7.4006896 0.88097024 0
14.908082 7.0866866 0.71856719 0
20.827478 7.2635789 0.76860654 0
21.147221 7.0472641 0.77672315 0
21.958473 7.0879121 0.80408442 0
22.243973 7.295826 0.81581062 0
33.909798 7.2475338 0.60442919 0
-8.1137819 7.5014424 0.96254802 0
-7.7167969 7.6441283 0.83191073 0
-7.1548171 7.7201142 0.76955515 0
-6.7602305 7.5956731 0.79540765 0
20.684799 7.6804075 0.76884991 0
21.052959 7.9343204 0.78398234 0
33.905315 7.7443199 0.6062268 0
-7.0328999 8.050931 0.74416208 0
-6.9922814 8.0809755 0.74388307 0
20.841808 8.2616615 0.78123689 0
21.468893 8.167943 0.80045491 0
33.890217 8.1713629 0.60766953 0
15.259044 10.923867 0.81741935 0
15.219457 11.006719 0.98182255 0
-13.793759 11.905993 0.95243061 0
-13.379021 11.81907 0.69922221 0
-12.904535 11.817741 0.91451848 0
-11.65756 11.634685 0.57346851 0
-14.299836 12.300985 0.65701795 0
-13.818822 12.035156 0.63824201 0
-11.276437 12.054955 0.71766919 0
-10.677841 12.301436 0.74879861 0
-10.382218 12.35295 0.63906521 0
-14.675113 12.505024 0.67160594 0
-10.188534 12.707601 0.71752179 0
-9.7362318 12.878241 0.6846174 0
-9.2940807 12.86144 0.66394091 0
-8.7974358 12.767749 0.53977889 0
-10.347895 13.032865 0.86961424 0
-9.927187 13.102052 0.57235175 0
-9.2292137 13.175632 0.84056199 0
-8.6875229 13.262314 0.68241167 0
-8.2808533 13.426698 0.54920948 0
-7.727881 13.448502 0.53996503 0
-8.5619345 13.6653 0.84260887 0
-8.2185698 13.706999 0.76577121 0
-7.9365692 13.76037 0.70391595 0
-7.3377242 13.988775 0.54994625 0
-8.6788464 14.091254 0.86479932 0
-7.8127465 14.289831 0.69999677 0
-7.1765184 14.163938 0.69188839 0
-6.8293147 14.17258 0.54771274 0
-7.7992473 14.553339 0.86281055 0
-7.1868587 14.820769 0.86071712 0
-6.7066879 14.789776 0.70793253 0
-7.0620136 15.067088 0.86954451 0
-6.7322664 15.256482 0.71304828 0
-35.191124 17.305746 0.68368053 0
-35.704693 17.903727 0.69635105 0
-35.211376 17.6558 0.68671727 0
-34.929031 17.789318 0.68336648 0
-37.8531 18.178165 0.7321285 0
-35.239761 18.29085 0.69219738 0
-34.619423 18.384476 0.68336642 0
-35.28669 19.28731 0.70109802 0
-34.353035 22.464066 0.71561843 0
-34.588711 22.851759 0.72277391 0
-6.9122186 22.940058 0.8349821 0
-7.241951 23.125965 0.84456778 0
-6.827353 23.185102 0.84233427 0
-9.1252184 23.946028 0.8931945 0
-8.9753056 23.997011 0.89300829 0
-7.8079724 23.933891 0.87746644 0
-6.7333012 23.792553 0.86180818 0
-8.7272196 24.133488 0.89450896 0
-8.2627096 24.130533 0.88901585 0
-7.9379845 24.162138 0.88644719 0
-6.5827579 24.083487 0.870184 0
-6.2448721 24.177851 0.87035364 0
-5.848609 24.352278 0.87290621 0
-8.9137335 24.535233 0.90989971 0
-5.7159557 24.646614 0.88184047 0
-5.7704062 26.364874 0.94079733 0
-5.8032069 27.33798 0.97425437 0
-5.6105218 28.321335 0.50311798 0
-5.382122 28.323503 0.50239658 0
-5.8387227 28.532398 0.50751597 0
35.369492 31.222551 0.82267153 0
40.851028 31.876604 0.90361583 0
41.001545 31.787304 0.9047327 0
-5.6443958 34.350193 0.6067853 0
-6.1520004 35.046833 0.62025857 0
-5.7496753 35.237545 0.62237614 0
-5.5676351 35.962166 0.63436007 0
-5.4444146 36.298477 0.63984013 0
-5.3006935 36.511765 0.64315611 0
-5.1770287 37.276516 0.65607083 0
-5.0007157 37.716278 0.66326123 0
-4.7219357 37.734837 0.66296458 0
-4.3306427 37.952045 0.66591406 0
-4.4782114 38.180565 0.67017245 0
15.75198 38.558315 0.72619462 0
16.030924 38.744217 0.73104644 0
38.270313 38.706623 0.94927126 0
38.740646 38.692818 0.95489097 0
39.094551 38.680107 0.95911449 0
39.753696 38.849941 0.96939975 0
40.33387 38.807133 0.97614801 0
40.807781 38.780251 0.98180252 0
41.271473 38.775764 0.98763168 0
41.774513 38.764446 0.9939146 0
42.173012 38.772224 0.99911529 0
-4.2350421 39.250317 0.6882531 0
38.207405 39.118896 0.95363438 0
-4.0935602 39.719635 0.6961416 0
-3.9292243 39.937214 0.69963211 0
38.20821 39.738907 0.96141815 0
-3.7613955 40.172241 0.70343661 0
38.208477 40.355156 0.96920186 0
38.186691 40.842415 0.9751358 0
-3.6547682 41.043468 0.71841079 0
38.197197 41.364952 0.98194218 0
19.371996 41.833416 0.8038578 0
19.824053 41.612293 0.80371821 0
20.160789 41.656002 0.80695271 0
38.211166 41.765041 0.98724777 0
16.805256 42.460487 0.79624861 0
19.81773 42.108624 0.81150198 0
16.683468 42.542862 0.79680711 0
32.954556 43.488033 0.95157498 0
32.801643 43.568447 0.95108634 0
-3.6315036 44.766197 0.78312439 0
-3.2815094 44.71685 0.78179801 0
-3.2955761 45.024822 0.78717333 0
20.342808 45.788929 0.87373728 0
20.731863 45.694519 0.87501717 0
19.843376 46.19915 0.87680888 0
20.123936 46.053627 0.87642491 0
-3.1385336 46.799881 0.81788957 0
-2.922843 46.885918 0.81914616 0
18.615355 47.885223 0.89593673 0
19.125101 47.660156 0.89555275 0
18.52314 48.092442 0.89872909 0
21.272312 50.814781 0.96072006 0
21.655996 51.056793 0.96721238 0
11.881288 -81.534462 1.4373802 0
12.276451 -81.550621 1.4386716 0
25.936794 -71.254883 1.3227528 0
31.249603 -71.353188 1.3588443 0
31.65238 -71.052856 1.3568897 0
32.025951 -71.021393 1.3590539 0
26.006033 -70.752602 1.3149341 0
32.38562 -70.928352 1.3601708 0
32.761513 -70.865791 1.3619161 0
33.248695 -70.769371 1.363987 0
33.74052 -70.728539 1.367012 0
34.310181 -70.529465 1.3681989 0
26.226126 -70.344772 1.3095937 0
30.273577 -70.020279 1.3307111 0
34.639698 -70.359406 1.3680593 0
24.885015 -69.72094 1.2913384 0
25.148874 -69.77076 1.2937119 0
26.447056 -69.943665 1.3043928 0
26.686478 -69.587067 1.3000647 0
28.925007 -69.857056 1.3189132 0
29.928591 -69.820457 1.3251263 0
34.654179 -69.591225 1.3561566 0
39.478828 -69.5205 1.3946568 0
39.883648 -69.722488 1.4012189 0
40.32093 -69.722313 1.4050235 0
41.265636 -69.607208 1.4116204 0
41.675465 -69.549057 1.4144127 0
26.857592 -69.058044 1.2925252 0
28.344074 -69.3629 1.3070805 0
27.230507 -68.769661 1.2902215 0
27.736301 -68.778839 1.2936422 0
28.94455 -68.682961 1.3001344 0
46.93404 -68.571533 1.4495969 0
51.019505 -68.89724 1.4956014 0
28.934948 -68.061661 1.290082 0
34.426136 -68.325623 1.3346205 0
34.776062 -68.217667 1.3357024 0
47.150875 -68.446907 1.4499459 0
51.056511 -68.271332 1.4872243 0
34.649773 -66.442406 1.3071504 0
34.99271 -65.834839 1.3005534 0
34.896458 -65.183586 1.2897328 0
8.7484722 -64.975777 1.1435516 0
35.249546 -64.85199 1.2875687 0
50.939598 -42.361313 1.1555936 0
3.8400555 -41.535412 1.45496 0
4.3169012 -41.721813 1.4630567 0
3.8128278 -41.267139 1.4455371 0
4.2591372 -41.188858 1.4443505 0
4.6937971 -41.02335 1.4402325 0
4.5587311 -40.982265 1.4382781 0
3.080344 -40.145626 1.4043558 0
2.8977108 -39.36961 1.3768549 0
46.937805 -38.29039 1.0564989 0
2.0653987 -36.26722 1.2668517 0
22.497917 -36.134846 1.4847642 0
22.609213 -36.060593 1.4846246 0
20.924532 -35.540836 1.4385571 0
21.055321 -35.519295 1.4402325 0
22.79439 -35.861591 1.4822049 0
23.112753 -35.868416 1.4883937 0
20.211763 -32.910954 1.3470274 0
21.356562 -30.29541 1.2927122 0
21.501205 -30.000362 1.287233 0
22.340321 -30.170488 1.3092896 0
21.747957 -29.952021 1.2909092 0
22.008648 -29.918432 1.2953298 0
1.2313517 -27.051033 1.4166296 0
0.46645668 -26.543674 1.3887869 0
0.76010901 -26.668388 1.3956952 0
1.1034949 -26.954573 1.4112914 0
-1.0596902 -25.555145 1.3379165 0
-0.84993976 -25.585432 1.3391027 0
-1.119117 -25.088795 1.3136325 0
-0.29987755 -25.115915 1.3138418 0
0.17064765 -25.348812 1.3259838 0
19.839455 -24.254486 1.0925636 0
20.055576 -24.291662 1.098357 0
-0.060603388 -23.707567 1.2399435 0
19.53998 -23.514467 1.0659703 0
19.745098 -23.258974 1.0637599 0
20.181213 -23.109842 1.0697393 0
20.595541 -23.219219 1.0821636 0
-1.3896983 -22.520378 1.1799664 0
-1.6807026 -22.250797 1.1669244 0
-1.4924293 -22.4758 1.1779778 0
22.686428 -21.101837 1.080279 0
23.21636 -20.800001 1.0868402 0
-1.9533629 -19.511761 1.0251566 0
-2.142556 -19.192699 1.2509853 0
-1.8477144 -19.40704 1.1551129 0
27.33987 -18.530588 1.1516834 0
27.540514 -18.540649 1.1576861 0
27.48065 -18.256227 1.150427 0
27.534817 -18.290005 1.1526606 0
18.877222 -16.551416 1.3132138 0
18.308159 -16.254345 1.2805562 0
18.801378 -16.356583 1.3035316 0
19.044485 -16.38319 1.3140512 0
18.292854 -15.553516 1.2558537 0
18.619581 -15.631005 1.2715544 0
19.194933 -15.516832 1.2910234 0
18.334017 -15.219584 1.2462656 0
18.869421 -15.347471 1.2721825 0
19.287518 -15.443126 1.2923841 0
26.543818 -15.13879 1.0654117 0
26.60022 -14.950123 1.0638763 0
-2.7687945 -14.13615 1.227805 0
-2.101006 -14.251027 1.1925678 0
-1.9479456 -14.347262 1.0722921 0
-2.7340665 -13.906784 1.2358685 0
-2.4147174 -13.949623 1.2343867 0
-3.9681909 -13.055504 1.4291131 0
-2.9035976 -13.131112 1.2899543 0
-3.3855672 -12.60571 1.3668143 0
-2.9104164 -12.720456 1.2901626 0
-3.5062923 -12.210342 1.1072266 0
-3.2243352 -12.172383 1.1454352 0
-2.9090223 -12.159442 1.1876794 0
21.206535 -12.053493 1.275846 0
-3.0008955 -11.974102 1.29239 0
-2.9658136 -11.98284 1.29239 0
21.344046 -11.913716 1.2785325 0
21.5005 -11.826582 1.283487 0
26.31109 -11.530283 1.0014759 0
26.357866 -11.453073 1.0018947 0
17.018158 -9.0549011 1.3446257 0
16.709034 -8.6259575 1.3115611 0
17.063971 -8.9768982 1.3449049 0
-3.6722591 -8.0708466 1.135389 0
-3.4902124 -8.2485781 1.2520013 0
-2.8435473 -8.370244 1.0795186 0
16.759005 -8.4209986 1.3081664 0
17.210981 -8.3216753 1.3334647 0
-4.9398031 -7.7826838 1.2887429 0
-3.6146452 -7.7106857 1.1258019 0
-3.2215881 -7.668273 1.0813997 0
-2.7637382 -7.6472931 1.2831652 0
17.463261 -7.8180718 1.3345809 0
17.515965 -7.6796999 1.3340228 0
-5.0836086 -7.1473651 1.2512457 0
-4.7016945 -7.2809415 1.2367038 0
-3.5507281 -7.2147236 1.1234053 0
-3.435622 -7.2487063 1.1206218 0
-2.947186 -7.4468222 1.2186229 0
-7.8696532 -6.5782757 1.314487 0
-5.6748075 -6.6777945 1.1326258 0
-5.2159472 -6.6365714 1.1808704 0
-4.6209426 -6.7361102 1.2864933 0
-4.2873917 -6.8782063 1.323151 0
-3.5621727 -6.9296684 1.2264463 0
-3.1831803 -6.5930238 1.2036617 0
-2.9216416 -6.7033372 1.1277502 0
14.464229 -6.7300429 1.2239577 0
14.513434 -6.6521378 1.2994409 0
-7.8897934 -6.4275169 1.2434359 0
-7.335896 -6.0977654 1.2966263 0
-6.2974091 -6.2947969 1.2441962 0
-5.5657253 -6.3253455 1.1284496 0
-5.1673784 -6.2115655 1.2096593 0
-4.7452707 -6.2719092 1.1806179 0
-4.410737 -6.2572436 1.2607452 0
-3.650245 -6.1981506 1.130183 0
-3.2790909 -6.2410307 1.2922517 0
-2.9834592 -6.2243247 1.2085913 0
-7.6275854 -5.7570801 1.2527571 0
-7.329298 -5.7957058 1.3189797 0
-6.8290377 -5.7709594 1.2647332 0
-6.3338633 -5.7672844 1.2290334 0
-5.7118726 -5.7136054 1.2429661 0
-5.1954074 -5.7527413 1.2546383 0
-4.7987547 -5.7723312 1.2554097 0
-4.4107509 -5.9570599 1.3248998 0
-3.6883471 -5.8516593 1.1491776 0
-3.2910063 -5.9397655 1.2418137 0
-8.4222898 -5.0804539 1.3755869 0
-7.554492 -5.4260607 1.3004334 0
-7.2056632 -5.1871605 1.1629418 0
-6.9825878 -5.1047039 1.0561197 0
-6.170506 -5.3405004 1.2850477 0
-5.7002358 -5.2872725 1.2895147 0
-5.2864761 -5.4007239 1.408187 0
-4.5992312 -5.0401015 1.261804 0
-9.952096 -4.8656955 1.2566935 0
-7.6459141 -4.8551846 1.2264558 0
-7.3719468 -4.6528625 1.2184595 0
-6.6312122 -4.7220707 1.2662514 0
-6.2082672 -4.6667047 1.2682229 0
-4.6619906 -4.9776893 1.2500948 0
-7.6003814 -4.427269 1.2808007 0
-7.3060517 -4.1829233 1.2286681 0
-6.1404166 -4.2545276 1.2194382 0
-5.8583789 -4.2525692 1.1818097 0
18.970697 -4.2675524 1.3563449 0
19.259041 -4.297195 1.0316464 0
19.600557 -4.2837071 1.3995938 0
-8.8603535 -3.8363166 1.0097449 0
-7.2957044 -3.795197 1.2503474 0
-6.8611007 -3.5541179 1.3539926 0
-6.0781016 -3.9466066 1.3523984 0
-5.8227935 -3.9017494 1.3533034 0
19.611856 -3.682457 1.3920137 0
21.603428 -3.6464086 1.1456864 0
-8.1255665 -3.3967085 1.3872608 0
-7.8304334 -3.2162356 1.3331345 0
-7.3071404 -3.3001511 1.2733462 0
-6.8487692 -3.2140315 1.1717515 0
-6.3031936 -3.1300073 1.2808433 0
19.853487 -3.3460128 1.4045234 0
21.612816 -3.473546 1.1446921 0
24.54574 -3.0154321 1.2935355 0
-6.2183313 -2.6772146 1.3381306 0
-5.7640638 -2.7730207 1.292134 0
-5.3054328 -2.727314 1.1825696 0
24.555092 -2.9383035 1.2935355 0
-9.2791252 -2.4123955 1.002637 0
-8.542016 -2.173835 1.07635 0
-8.4628677 -2.0532358 1.0633507 0
-6.6302452 -2.1732867 1.4728464 0
-6.239193 -2.4619832 1.4154629 0
-5.6257644 -2.2562022 1.2455469 0
-5.419004 -2.3481333 1.3345259 0
-8.5966854 -1.9461462 1.07635 0
-8.3253679 -1.7748834 1.0393831 0
-7.7751226 -1.7382905 1.2116673 0
-7.4477978 -1.7273425 1.067736 0
-6.5452814 -1.6115596 1.2117687 0
-6.2410908 -1.7292314 1.1810293 0
-5.8500915 -1.7088535 1.2470073 0
-5.1180668 -1.7640899 1.0260601 0
-4.8687563 -1.8457215 1.0965261 0
-8.8948002 -1.2651478 1.2558981 0
-8.2749128 -1.1596226 1.1675695 0
-7.6859336 -1.3349392 1.1578668 0
-7.316792 -1.2375485 1.1112281 0
-6.7990375 -1.2454268 1.2684869 0
-6.2246122 -1.1718955 1.3365444 0
-5.7178144 -1.3320184 1.3363453 0
-5.448329 -1.4441533 1.3691452 0
-8.1034775 -0.64152223 1.4248875 0
-7.7056937 -0.66867673 1.3554703 0
-7.1994205 -0.73207343 1.2429863 0
-6.8128872 -0.7000795 1.2137263 0
-6.2464094 -0.73731709 1.2779642 0
-5.9313745 -0.87052429 1.4095892 0
-5.3480082 -0.79056203 1.2695231 0
-8.5804567 -0.15024424 1.3515939 0
-8.112484 -0.21311855 1.2780111 0
-7.7707911 -0.27415577 1.2494824 0
-7.3325515 -0.35664582 1.3515806 0
-6.8275194 -0.32523429 1.361423 0
-6.3968258 -0.34503931 1.3514494 0
15.29006 -0.2833733 1.209483 0
15.555958 -0.17132756 1.3568406 0
-8.0632687 0.38298792 1.4148853 0
-7.7623978 0.19542228 1.321182 0
-7.2699151 0.28932309 1.1482052 0
-6.7074046 0.2148581 1.2819167 0
-6.4055285 0.18805996 1.3359817 0
-8.3210716 0.67837441 1.3146753 0
-7.7282219 0.72600406 1.2917675 0
-7.2502146 0.7672689 1.27496 0
-6.8622665 0.82111108 1.3250613 0
-5.8112564 0.92588133 1.2204822 0
-9.5305748 1.0438491 1.002637 0
-9.3921423 1.1243215 1.1134764 0
-7.8120246 1.4728348 1.2514757 0
-7.2500539 1.2122443 1.2121782 0
-6.7503834 1.2507693 1.3254025 0
-6.25279 1.3231305 1.2484243 0
-5.834929 1.1588677 1.2281455 0
-5.4896612 1.4605522 1.1972387 0
-9.6279802 1.614984 1.1929532 0
-8.2397404 1.8616827 1.3303188 0
-7.7651052 1.8469124 1.2913171 0
-7.1397152 1.7190808 1.2236041 0
-6.7962561 1.7571108 1.169273 0
-6.3277926 1.6921891 1.2510834 0
-5.8425698 1.5815564 1.3862983 0
12.969254 1.7533114 1.2556792 0
22.372028 1.8726177 1.1740525 0
-11.089207 2.1629224 1.1824259 0
-10.481699 2.0772483 1.1180365 0
-7.6732354 2.3162904 1.4048831 0
-7.1737218 2.2748926 1.3600143 0
-6.6844187 2.4471462 1.307189 0
-6.1864371 2.3959291 1.2802011 0
21.347683 2.4577117 1.1236529 0
22.19067 2.1707702 1.1660032 0
83.269608 2.299952 1.4531921 0
-9.7985468 2.6421006 1.061591 0
-7.1983385 2.7066689 1.2447208 0
-6.612299 2.7233202 1.3088653 0
-6.306953 2.744122 1.2743251 0
-5.9841251 2.587461 1.3755436 0
18.058924 2.6726511 1.2731951 0
21.326094 2.622375 1.1235484 0
21.726902 2.6021912 1.1442734 0
-6.3255153 3.1257851 1.3115659 0
21.48634 3.1387181 1.1354809 0
21.5044 3.0413468 1.1356903 0
-9.608532 3.8403168 1.4272343 0
-9.3183937 3.8354747 1.054065 0
-6.582284 3.641809 1.3851129 0
21.569595 3.7023516 1.1444304 0
22.040859 3.9583123 1.1710694 0
-10.535115 4.3611612 1.2938104 0
-10.2835 4.2992687 1.2309796 0
-9.7295475 4.3503199 1.4187355 0
-9.4173803 4.2089686 1.2117884 0
-8.2502947 4.360342 1.4234459 0
-5.54497 4.2964063 1.3006172 0
-5.4094253 4.3861761 1.2779504 0
21.938616 4.2934418 1.1690457 0
22.049629 4.1024327 1.1728836 0
-10.805649 4.9054298 1.0340158 0
-10.260204 4.7953444 1.2069397 0
-9.8259192 4.751543 1.2641289 0
-9.0097399 4.5746827 1.2347802 0
-8.2337837 4.712646 1.3826643 0
-7.7552524 4.6772952 1.3094323 0
-5.3575635 4.5126643 1.2266507 0
-11.029253 5.0681076 1.0577221 0
-10.781845 5.2353635 1.115021 0
-10.107508 5.2710323 1.3487562 0
-9.8314209 5.1619072 1.2016447 0
-9.4621601 5.1170235 1.1255625 0
-8.7779522 5.1684732 1.1159602 0
-8.1170263 5.3232908 1.0151805 0
21.426701 5.4374619 1.1559966 0
21.586859 5.4067783 1.1637423 0
22.66461 5.456625 1.2192184 0
-10.650986 5.9166627 1.2052224 0
-10.285661 5.7734008 1.2503603 0
-9.1292334 5.6147571 1.183743 0
-8.7032394 5.6935773 1.271994 0
-8.3103895 5.7777958 1.1779572 0
21.382353 5.7471886 1.1578808 0
22.895527 5.6226597 1.2330351 0
-10.553698 6.1555076 1.0646945 0
-8.5518436 6.2025857 1.337028 0
-8.3622208 6.1236095 1.2920073 0
21.3675 6.1593223 1.1629049 0
21.880396 6.3562303 1.1915851 0
33.871826 6.3457203 1.2017293 0
-9.1347218 6.7985353 1.3922354 0
-8.6897392 6.5279117 1.1372697 0
14.730135 6.9935703 1.4223816 0
15.32429 6.9429326 1.3686532 0
21.224974 6.5983644 1.1623467 0
22.244829 6.6872482 1.2148223 0
33.871895 6.7298231 1.204284 0
-7.673593 7.4416571 1.3443086 0
-7.2936149 7.4459405 1.090441 0
14.311772 7.3147068 1.4019872 0
14.693115 7.1488914 1.3101257 0
15.310798 7.1654153 1.2522317 0
21.25012 7.3375974 1.1756749 0
21.792435 7.2470717 1.2010752 0
