# .PCD v0.7 - Point Cloud Data file format
VERSION 0.7
FIELDS x y z intensity
SIZE 4 4 4 4
TYPE F F F F
COUNT 1 1 1 1
WIDTH 1425
HEIGHT 1
VIEWPOINT 0 0 0 1 0 0 0
POINTS 1425
DATA ascii
22.330238 15.801103 -2.8701427 0
22.720991 15.603976 -2.8919542 0
23.232872 15.645963 -2.9389222 0
23.668133 15.689162 -2.9794793 0
22.696106 16.435392 -2.9401767 0
18.799585 16.992018 -2.6583679 0
19.123978 16.963688 -2.6817825 0
21.702047 16.945061 -2.8888876 0
22.218601 16.890057 -2.9283648 0
22.603354 16.689819 -2.9481206 0
18.453018 17.155285 -2.6431065 0
18.556618 17.037292 -2.6426885 0
20.308241 17.29435 -2.7985404 0
20.691116 17.194565 -2.822582 0
21.236853 17.102461 -2.8608742 0
22.043299 17.139563 -2.9297237 0
16.735573 17.815765 -2.5640831 0
17.254759 17.763945 -2.5978248 0
17.768051 17.7962 -2.6380894 0
18.243942 17.82563 -2.6758242 0
18.531219 17.828146 -2.6976705 0
15.448183 18.17989 -2.5024114 0
15.756566 18.36648 -2.5383692 0
16.604567 18.124924 -2.5785081 0
16.224594 18.616329 -2.5904243 0
16.660961 18.645069 -2.6230373 0
18.763973 21.860579 -2.5162909 0
19.276957 21.910509 -2.5490148 0
19.706209 21.984076 -2.578764 0
19.967163 22.001045 -2.5951493 0
20.297031 22.016329 -2.6156309 0
20.762358 22.034409 -2.6445377 0
21.241634 22.056973 -2.674897 0
21.724327 22.072378 -2.7053144 0
22.227135 22.097542 -2.7379105 0
22.745178 22.124969 -2.7719011 0
23.235117 22.185068 -2.8064148 0
23.683321 22.217773 -2.8368614 0
24.240902 22.248932 -2.8744833 0
24.703308 22.257431 -2.904901 0
25.140602 22.29529 -2.9356377 0
25.762466 22.351089 -2.9797678 0
27.658957 22.899946 -2.5076056 0
27.749218 23.175167 -2.524766 0
31.861271 23.198418 -2.7525907 0
33.528145 23.466225 -2.8583412 0
34.164768 23.437227 -2.8937776 0
30.178768 23.664478 -2.6783695 0
31.902163 23.995014 -2.7880266 0
32.170277 23.805389 -2.7951419 0
32.660564 23.62561 -2.8153713 0
33.225063 23.664335 -2.8490403 0
33.503597 23.757423 -2.8686652 0
34.242031 23.648708 -2.9066126 0
35.391548 23.736145 -2.9765086 0
35.701012 23.638718 -2.9907391 0
31.484587 24.14241 -2.7710061 0
31.833113 24.17234 -2.7916541 0
34.885185 24.254835 -2.9677196 0
35.362885 24.095673 -2.9889255 0
31.999416 24.696945 -2.823184 0
18.149288 30.938082 -2.5048156 0
17.897211 31.052296 -2.5028625 0
18.091579 31.050392 -2.5095587 0
16.431763 31.986729 -2.5112331 0
20.427866 31.742971 -2.6362367 0
20.419409 32.286282 -2.6679525 0
16.092197 32.671173 -2.5433211 0
20.380745 32.724419 -2.6924603 0
16.078379 33.246174 -2.5790365 0
32.959614 37.422691 -2.6109359 0
32.885155 37.583736 -2.6147044 0
40.423256 38.116524 -2.9092512 0
40.590298 38.043808 -2.9130194 0
26.779833 41.405544 -2.5817678 0
27.255836 41.440159 -2.59691 0
27.936075 41.486534 -2.6186819 0
28.132179 41.498665 -2.6249623 0
25.935669 41.938812 -2.5817327 0
26.301559 41.659271 -2.5794821 0
28.345755 41.532135 -2.6327078 0
28.743326 41.58844 -2.6469433 0
29.232136 41.617947 -2.6628535 0
29.953508 41.678791 -2.6873467 0
30.279907 41.716446 -2.6989651 0
30.718954 41.766685 -2.7146659 0
31.124611 41.77951 -2.7278547 0
31.785799 41.839428 -2.7511964 0
32.243011 41.899658 -2.7682581 0
32.577374 41.931541 -2.7802954 0
25.364298 42.324738 -2.5834424 0
25.67337 42.102234 -2.5818374 0
33.929466 42.027512 -2.8282349 0
34.263664 42.041801 -2.8398538 0
34.742489 42.080444 -2.8573339 0
35.213535 42.122719 -2.874814 0
35.704521 42.182098 -2.8937597 0
36.17981 42.228592 -2.9117632 0
36.667809 42.293121 -2.9310226 0
37.686859 42.381767 -2.9697516 0
38.214378 42.448444 -2.9907904 0
24.483202 42.952549 -2.5885363 0
24.805159 42.741692 -2.5873849 0
25.116936 42.515495 -2.5853963 0
23.842335 43.439201 -2.5943983 0
24.175798 43.188934 -2.5914149 0
23.325453 43.807121 -2.5984802 0
23.639711 43.59964 -2.5967007 0
62.260681 44.987755 -2.6807003 0
62.758972 45.048302 -2.6960559 0
63.212688 45.073677 -2.7094574 0
63.657379 45.089706 -2.7224398 0
26.564892 -65.977615 -2.4820523 0
26.454346 -63.42215 -2.3980141 0
26.419411 -62.782318 -2.3769348 0
9.3579473 -61.575172 -2.1732614 0
10.737603 -61.641808 -2.1833124 0
13.910126 -61.610909 -2.2039728 0
14.194253 -61.546005 -2.2039731 0
15.100813 -61.560471 -2.2117906 0
9.6231384 -61.433052 -2.1697717 0
10.519643 -61.468491 -2.1760533 0
14.482182 -61.491283 -2.204392 0
15.383976 -61.461388 -2.2108135 0
19.390333 -60.204056 -2.2070441 0
19.796949 -60.168163 -2.2102549 0
20.297695 -60.096169 -2.2133958 0
20.693071 -60.03941 -2.2159784 0
20.930277 -59.825932 -2.2116508 0
21.122105 -59.771198 -2.2120697 0
25.337852 -59.167881 -2.2459922 0
25.665577 -59.176735 -2.250808 0
26.142742 -59.266899 -2.2603707 0
26.663435 -59.17905 -2.2649775 0
26.952698 -58.863499 -2.2591143 0
27.210373 -58.694069 -2.2575088 0
27.43029 -58.448219 -2.2529719 0
27.732239 -58.162159 -2.2484581 0
28.190119 -57.725204 -2.2416646 0
28.79117 -57.588715 -2.24669 0
29.178284 -57.461033 -2.2487838 0
29.844296 -57.44701 -2.2589746 0
30.16827 -57.410702 -2.2630925 0
30.797123 -57.334618 -2.27105 0
31.234797 -57.306877 -2.2774713 0
31.574846 -57.286976 -2.2825665 0
32.313271 -57.144756 -2.290803 0
32.759846 -57.104317 -2.2972944 0
33.223579 -57.090294 -2.3049722 0
35.262444 -56.867825 -2.3349857 0
35.571354 -56.767223 -2.337708 0
36.369186 -56.658737 -2.3494341 0
36.818184 -56.594685 -2.3560648 0
38.853378 -56.264984 -2.3860784 0
40.396866 -56.049339 -2.4109969 0
41.758095 -56.062901 -2.4394748 0
40.045322 -55.913048 -2.3999686 0
41.971012 -55.998631 -2.4421275 0
29.231575 -52.447464 -2.0950866 0
12.250057 -45.064808 -2.4449265 0
2.8539863 -44.519596 -2.3354397 0
3.906559 -44.626015 -2.3451743 0
4.1895361 -44.636444 -2.3470581 0
4.7163515 -44.54274 -2.3449299 0
6.3353224 -44.526039 -2.35449 0
6.8294926 -44.537731 -2.3588862 0
7.0473571 -44.556412 -2.3616078 0
12.35434 -44.634369 -2.4246202 0
-7.6056061 -44.298302 -2.3530245 0
-7.246923 -44.257114 -2.347791 0
-6.7581544 -44.282738 -2.3451219 0
-5.5628724 -44.27084 -2.3358583 0
-5.351347 -44.272705 -2.3346024 0
-4.7228627 -44.251667 -2.3297875 0
-4.2365298 -44.261631 -2.3277464 0
-3.7538316 -44.290939 -2.3269961 0
-3.2928867 -44.238678 -2.3223557 0
-2.7413247 -44.251266 -2.3210473 0
-2.2563508 -44.208435 -2.3173664 0
-1.7717737 -44.167759 -2.3140867 0
-1.2235494 -44.210312 -2.3153424 0
-0.74180108 -44.199841 -2.3142262 0
-0.26240399 -44.16555 -2.31215 0
0.28916392 -44.137421 -2.3106847 0
0.77049083 -44.260605 -2.317436 0
1.2469591 -44.138725 -2.3116269 0
1.7366167 -44.362499 -2.3242052 0
2.2104514 -44.127972 -2.31304 0
2.7431757 -44.242065 -2.3205762 0
3.2458456 -44.154835 -2.317785 0
3.6088567 -44.386566 -2.3313575 0
4.37497 -44.395943 -2.3354397 0
4.7807436 -44.309883 -2.3331368 0
5.2787633 -44.357643 -2.3385801 0
5.5862861 -44.04644 -2.3243444 0
6.2947898 -44.237041 -2.3392076 0
6.614965 -44.485355 -2.35449 0
7.2497683 -44.481369 -2.3594096 0
8.825613 -44.142578 -2.356688 0
9.1499548 -44.347984 -2.3706095 0
9.7109766 -44.277454 -2.3731215 0
11.754054 -44.329273 -2.4009645 0
12.478038 -44.280525 -2.4085007 0
12.603943 -44.195011 -2.4059887 0
5.8309121 -43.878937 -2.3172967 0
7.418962 -43.803345 -2.32581 0
7.7388053 -43.630234 -2.3197389 0
8.174159 -43.714695 -2.3281825 0
8.6391449 -43.937263 -2.3442321 0
-8.0814457 -41.726437 -2.2249062 0
-8.2336903 -41.464607 -2.2129736 0
-11.125809 -39.87011 -2.1668134 0
-10.736563 -39.898918 -2.1628881 0
-10.200527 -39.883698 -2.1549854 0
-1.001214 -35.036366 -2.4476151 0
-0.07774578 -35.11837 -2.4523585 0
0.087782696 -35.150314 -2.4545908 0
-3.0936224 -34.583336 -2.4245954 0
-2.8929784 -34.796902 -2.4382677 0
-1.9194486 -34.902119 -2.4409184 0
-0.88999939 -34.995461 -2.444546 0
-4.6213827 -31.089867 -2.1945386 0
-6.0842185 -29.242315 -2.0852537 0
-5.8776069 -29.401264 -2.0932522 0
24.906532 -29.06885 -2.0036297 0
-6.8003764 -28.6483 -2.0555837 0
0.82075167 -28.517361 -2.4917827 0
1.2212422 -28.53363 -2.494467 0
-7.1892619 -28.179459 -2.0302622 0
-6.9200859 -28.371782 -2.0387495 0
-2.4150038 -28.16296 -2.4687734 0
-1.2641627 -28.07523 -2.4545672 0
-0.72110903 -28.182339 -2.4622545 0
-0.24015255 -28.294821 -2.4713881 0
0.24424347 -28.353888 -2.4765477 0
0.55509901 -28.468113 -2.4869018 0
25.715462 -28.455372 -2.0075026 0
-7.6679688 -27.715786 -2.0075355 0
-7.4093561 -27.958462 -2.0191708 0
-2.5093076 -27.728664 -2.4316452 0
-2.1418147 -27.855234 -2.4400122 0
-1.7141746 -27.911192 -2.4423363 0
20.395594 -27.986294 -2.4181781 0
20.650402 -27.965153 -2.4275253 0
-2.5676801 -27.415163 -2.4048011 0
-1.1252474 -27.376547 -2.3929479 0
-2.5954235 -26.840124 -2.354948 0
-2.6190534 -26.241213 -2.3030033 0
-2.6874866 -25.70546 -2.2569849 0
-2.8758194 -25.226795 -2.217155 0
-3.1907327 -24.885323 -2.1908164 0
24.875629 -24.596722 -2.4428718 0
17.295431 -24.439608 -2.090276 0
22.556641 -24.182379 -2.3090787 0
24.854929 -24.203741 -2.422596 0
22.575266 -23.75358 -2.2881517 0
24.866066 -23.776525 -2.4024131 0
-1.0923944 -23.377983 -2.4547462 0
-0.50390702 -23.004143 -2.4133532 0
-0.21650124 -23.062189 -2.4190276 0
0.25116852 -23.163782 -2.4297292 0
0.72237617 -23.254297 -2.4402916 0
1.2291424 -23.263184 -2.4434574 0
1.7304839 -23.267191 -2.4472201 0
2.1840463 -23.312214 -2.4559171 0
2.7618139 -23.36083 -2.4674094 0
3.2417877 -23.364985 -2.4742584 0
3.7136188 -23.389156 -2.484098 0
4.2300406 -23.297775 -2.4837158 0
4.7444773 -23.24893 -2.4889123 0
5.2289376 -23.217438 -2.4963486 0
22.717136 -23.242611 -2.2693176 0
23.157787 -23.183443 -2.2880123 0
24.864677 -23.263958 -2.3777189 0
-5.5794525 -22.600813 -2.0324719 0
-5.3948035 -22.763008 -2.0424659 0
-2.1080377 -22.529284 -2.373214 0
-1.7675438 -22.690434 -2.3870716 0
-1.2816859 -22.873037 -2.4028306 0
-0.7515316 -22.972513 -2.4107747 0
2.4270945 -22.981306 -2.423806 0
24.876566 -22.914225 -2.361675 0
-6.0270143 -22.174028 -2.0061507 0
-5.8207068 -22.380838 -2.0190151 0
-2.5881281 -22.388422 -2.3637371 0
-2.3470554 -22.452581 -2.3676741 0
-1.1815597 -22.337963 -2.3460369 0
25.074488 -22.246912 -2.3406551 0
-2.6653099 -21.873241 -2.3109152 0
25.062325 -21.752966 -2.3172405 0
-2.687151 -21.235134 -2.2446442 0
25.050642 -21.40147 -2.3005686 0
-2.7432566 -20.63818 -2.1831815 0
-2.8037896 -20.152197 -2.1334257 0
22.569704 -20.339031 -2.1211548 0
-2.8408508 -19.598478 -2.0763533 0
2.2126479 -19.72373 -2.4310496 0
-4.5350704 -19.021519 -2.0502212 0
-2.9359376 -19.211582 -2.0376081 0
-1.1329027 -19.104633 -2.343986 0
-0.74562526 -19.118296 -2.3433645 0
-0.42032775 -19.190353 -2.3509409 0
0.26718235 -19.290281 -2.3629246 0
0.74898732 -19.348106 -2.3715773 0
1.2356311 -19.404682 -2.3815706 0
1.7234211 -19.435709 -2.3899188 0
2.1414502 -19.409353 -2.3917589 0
2.7899003 -19.455786 -2.4074419 0
3.2489424 -19.420738 -2.4118555 0
3.7447069 -19.40658 -2.4209344 0
4.2363591 -19.356022 -2.4270277 0
4.7263107 -19.2995 -2.4338527 0
5.2304621 -19.279057 -2.4468927 0
5.6314497 -19.211187 -2.4522061 0
6.3944502 -19.241508 -2.4836974 0
6.5751743 -19.281157 -2.4953966 0
22.554176 -19.089199 -2.0628386 0
24.859079 -19.258617 -2.195585 0
-5.1381927 -18.613689 -2.0245073 0
-4.8055015 -18.877586 -2.0423818 0
-4.2433176 -18.788456 -2.01949 0
-3.7515354 -18.818926 -2.0118592 0
-3.2482815 -18.890739 -2.0096409 0
-2.5646875 -18.700975 -2.3117802 0
-2.2507515 -18.790577 -2.3178332 0
-1.8161047 -18.887098 -2.3238742 0
-1.2988635 -18.917562 -2.3223422 0
22.496401 -18.564102 -2.0361915 0
22.500729 -18.802479 -2.0470734 0
24.855278 -18.76606 -2.1744487 0
-5.573812 -18.294798 -2.005065 0
-5.393302 -18.416233 -2.0118804 0
22.688248 -18.309048 -2.0353262 0
23.080803 -18.218023 -2.0527935 0
24.856983 -18.286354 -2.1544983 0
-2.7298138 -17.658451 -2.1880422 0
24.868504 -17.822281 -2.1360826 0
25.030306 -17.646624 -2.1381752 0
-2.8706408 -17.159283 -2.1302762 0
24.906696 -17.21022 -2.1136212 0
25.023466 -17.121321 -2.1168299 0
-3.2417014 -16.693977 -2.0822372 0
-2.972914 -16.956579 -2.1078522 0
0.29200873 -16.547966 -2.3193197 0
0.7577104 -16.601343 -2.3289227 0
1.2477068 -16.637403 -2.3381081 0
1.7448114 -16.672939 -2.3493533 0
2.2491553 -16.713451 -2.3634067 0
2.750087 -16.693466 -2.3710642 0
3.2506983 -16.672066 -2.3805404 0
3.7520905 -16.616156 -2.3873751 0
4.1959691 -16.537745 -2.3911531 0
25.021011 -16.722042 -2.1010649 0
-4.0655723 -16.077845 -2.0303433 0
-3.782831 -16.263916 -2.0444801 0
-2.5670512 -16.020782 -2.2735319 0
-2.2555056 -16.114868 -2.2802122 0
-1.737314 -16.219269 -2.2858346 0
-1.235749 -16.31205 -2.2924037 0
-0.72986966 -16.378582 -2.2974696 0
-0.24729538 -16.465281 -2.3076138 0
0.034127843 -16.492477 -2.3111086 0
4.4320564 -16.497753 -2.3940556 0
4.7388849 -16.42767 -2.3962266 0
5.2440081 -16.358822 -2.4076326 0
5.7470498 -16.259035 -2.4169357 0
6.2668366 -16.265354 -2.4430444 0
6.7425861 -16.298714 -2.4722013 0
7.1855145 -16.285868 -2.4950953 0
7.5322938 -16.112108 -2.4928687 0
25.012981 -16.215549 -2.0811145 0
-4.2936678 -15.838165 -2.009016 0
-2.745095 -15.865754 -2.2561815 0
17.078585 -15.641075 -2.1845703 0
24.987526 -15.927116 -2.0686979 0
25.003733 -15.827182 -2.0659077 0
-2.8295012 -15.223705 -2.1694303 0
-3.1067195 -14.562433 -2.0859265 0
-2.9023156 -14.722452 -2.1021819 0
-0.15181513 -14.52073 -2.2923906 0
0.23240525 -14.549878 -2.2972541 0
0.7310642 -14.562484 -2.3018622 0
1.2334973 -14.584421 -2.3106792 0
1.740087 -14.615164 -2.3236494 0
2.2398031 -14.589462 -2.3303049 0
2.7455678 -14.547751 -2.3373017 0
3.0190244 -14.509244 -2.3396339 0
-3.5352972 -14.182996 -2.0475147 0
-3.36518 -14.351618 -2.0649807 0
-2.5379362 -14.015264 -2.2482762 0
-2.2602551 -14.092231 -2.2530215 0
-1.7607938 -14.208887 -2.260165 0
-1.2579225 -14.312343 -2.268091 0
-0.75592268 -14.411968 -2.2782545 0
-0.39862522 -14.472244 -2.285445 0
3.266011 -14.451808 -2.3391335 0
3.7436159 -14.382812 -2.3464031 0
4.258173 -14.331149 -2.3603971 0
4.7702937 -14.252645 -2.3729684 0
5.2457628 -14.141728 -2.3814332 0
5.7077627 -14.033758 -2.3920078 0
6.4990592 -14.005869 -2.4378746 0
6.7207942 -14.087601 -2.4645727 0
22.36854 -14.162614 -2.3120675 0
24.678091 -14.1112 -2.482893 0
-2.7569675 -13.893924 -2.235949 0
5.9741745 -13.997437 -2.4028332 0
6.2250142 -13.979954 -2.4162519 0
6.9166403 -13.94448 -2.457742 0
7.2627592 -13.873228 -2.4726658 0
7.629775 -13.835358 -2.4948168 0
22.38682 -13.739821 -2.2938807 0
24.632637 -13.581783 -2.4567461 0
-2.9158144 -13.382023 -2.1616116 0
0.23702192 -13.017124 -2.2872937 0
0.72225338 -13.014037 -2.2898982 0
22.437243 -13.389099 -2.2817373 0
22.726233 -13.273607 -2.2983842 0
24.671375 -13.263517 -2.4464269 0
-3.0100214 -12.767208 -2.0699408 0
-2.9274495 -12.862295 -2.0816736 0
-2.2309489 -12.585053 -2.2453024 0
-1.7709451 -12.705473 -2.2536328 0
-1.2624118 -12.7937 -2.2584951 0
-0.74657333 -12.871774 -2.2651203 0
-0.24748361 -12.954876 -2.2763538 0
0.97996265 -12.998899 -2.290072 0
1.2444223 -12.98836 -2.2923295 0
1.7346743 -12.983016 -2.3012435 0
2.2444396 -12.956185 -2.3102152 0
2.7513306 -12.893112 -2.3162351 0
3.2372696 -12.811249 -2.3216183 0
3.7404616 -12.717452 -2.3290763 0
4.2466254 -12.611366 -2.3380568 0
4.6361032 -12.532458 -2.3477232 0
24.82382 -12.755388 -2.4375718 0
-2.6778643 -12.227565 -2.1483426 0
-2.4746294 -12.485641 -2.2358937 0
4.8964801 -12.45781 -2.3517752 0
5.2563634 -12.359252 -2.3598211 0
5.7440343 -12.219041 -2.3723812 0
6.243875 -12.137836 -2.3984287 0
6.6986136 -12.045174 -2.4218364 0
24.91119 -12.217898 -2.4232783 0
-2.8261688 -11.836488 -2.1373391 0
-1.2054381 -11.544102 -2.2468977 0
-0.76482642 -11.624673 -2.2553079 0
-0.26088518 -11.70072 -2.2657752 0
0.2493255 -11.751464 -2.2755883 0
0.76151675 -11.749083 -2.2794042 0
1.2552159 -11.720585 -2.2820756 0
1.7463616 -11.690013 -2.2883451 0
2.2427232 -11.647038 -2.2963421 0
2.7379436 -11.585885 -2.3049183 0
3.1017246 -11.52134 -2.3099339 0
6.9639006 -11.991512 -2.4366312 0
7.2520351 -11.924884 -2.4526069 0
7.7566772 -11.787173 -2.4796958 0
8.0811729 -11.686357 -2.496829 0
16.816465 -11.723249 -2.1495235 0
24.910574 -11.741045 -2.4051497 0
-3.0086629 -11.0826 -2.0164025 0
-2.7865591 -11.161081 -2.1686983 0
-2.2465329 -11.258379 -2.2223904 0
-1.7457014 -11.377536 -2.2282674 0
-1.4486603 -11.449715 -2.2339916 0
3.3564656 -11.467992 -2.3133683 0
3.7524755 -11.366074 -2.317457 0
4.2507176 -11.224975 -2.3239446 0
4.715426 -11.078538 -2.331177 0
24.906277 -11.269513 -2.3875096 0
-3.3109636 -10.912913 -2.0023949 0
-2.9592614 -10.764632 -2.1607213 0
-1.0638567 -10.508834 -2.2349122 0
-0.75477678 -10.561127 -2.2405601 0
-0.24690861 -10.651615 -2.2546499 0
0.25130939 -10.715429 -2.2682333 0
0.74868315 -10.702417 -2.2703955 0
1.2463908 -10.669033 -2.2731676 0
1.7513955 -10.659449 -2.2860863 0
2.2535508 -10.612144 -2.2959549 0
2.686897 -10.538764 -2.3016202 0
4.9631662 -10.990641 -2.334739 0
5.2466664 -10.894515 -2.3412812 0
5.7302504 -10.726905 -2.354759 0
6.2486434 -10.602844 -2.3830953 0
6.5494318 -10.511829 -2.3980875 0
24.915962 -10.763882 -2.3704038 0
-3.04772 -10.05355 -2.0326884 0
-2.7522101 -10.116459 -2.1701586 0
-2.245584 -10.193272 -2.2085943 0
-1.7416792 -10.326809 -2.216027 0
-1.3052764 -10.457683 -2.2299912 0
2.9347358 -10.486975 -2.3044932 0
3.2445185 -10.41292 -2.3082631 0
3.7511134 -10.26865 -2.313745 0
4.2514038 -10.109097 -2.3210149 0
4.5235605 -10.009079 -2.3244526 0
6.802568 -10.442962 -2.4133523 0
7.2587895 -10.283182 -2.4374821 0
7.7240353 -10.090967 -2.4609272 0
-3.2803686 -9.8749743 -2.0134165 0
-2.9376168 -9.8128433 -2.1670635 0
-1.2226961 -9.5921726 -2.2215605 0
-0.75127888 -9.6911678 -2.2332013 0
-0.25764087 -9.7650776 -2.2443764 0
0.24400045 -9.799983 -2.2523222 0
0.74743533 -9.7911062 -2.2561798 0
1.2513872 -9.7758827 -2.2644696 0
1.7442858 -9.7624025 -2.2786417 0
2.2530358 -9.7101984 -2.290478 0
2.7547529 -9.6128969 -2.2977624 0
3.1030424 -9.5290937 -2.302599 0
4.7752652 -9.9032488 -2.3268886 0
5.2435102 -9.6957798 -2.3329771 0
5.6013627 -9.52913 -2.3393035 0
7.9696908 -9.9929333 -2.4751744 0
8.1436491 -9.9218435 -2.485764 0
8.5991755 -9.593976 -2.4950185 0
-3.0471992 -9.0402851 -2.017575 0
-2.7880087 -9.1643353 -2.1621754 0
-2.2437241 -9.302269 -2.1983278 0
-1.7573838 -9.4394197 -2.2058434 0
-1.4799697 -9.4861021 -2.20542 0
-0.52602839 -9.0080233 -2.2377777 0
-0.24666555 -9.0427752 -2.2437451 0
0.24626455 -9.0761795 -2.2520363 0
0.73863024 -9.0721931 -2.2577221 0
1.248013 -9.0475683 -2.2654641 0
1.7480378 -9.0289803 -2.2812378 0
3.35853 -9.4646225 -2.3075478 0
3.7582996 -9.3346348 -2.3123379 0
4.2473712 -9.1285973 -2.3136082 0
4.5363569 -9.011982 -2.3181956 0
5.8590827 -9.4558258 -2.3542881 0
6.2436914 -9.3190718 -2.3742959 0
6.7329912 -9.1055708 -2.397083 0
22.390209 -9.2256508 -2.1144679 0
-3.0969596 -8.8385983 -2.0567977 0
-2.9863572 -8.958353 -2.168978 0
-2.1880288 -8.5632324 -2.1918123 0
-1.7554833 -8.6970634 -2.2004707 0
-1.2507442 -8.8515701 -2.2171757 0
-0.77531624 -8.9601116 -2.2305803 0
2.2443085 -8.9548054 -2.2900324 0
2.7436028 -8.8352032 -2.2949247 0
3.2518184 -8.6773672 -2.2987678 0
3.629926 -8.5451727 -2.3028815 0
4.7914662 -8.8912621 -2.320895 0
5.248198 -8.6480951 -2.3246441 0
5.5107646 -8.5056515 -2.3286934 0
7.2440548 -8.8709154 -2.4244061 0
7.7094698 -8.6222963 -2.448432 0
22.415819 -8.7539396 -2.1012003 0
24.660929 -8.6736908 -2.2829225 0
-3.04461 -8.2144194 -2.0510538 0
-2.7659161 -8.3496923 -2.1814439 0
-2.4347005 -8.4816618 -2.1881349 0
-1.6746911 -8.053031 -2.1912656 0
-1.2485996 -8.2028847 -2.2107289 0
-0.74241477 -8.3106594 -2.2231522 0
-0.24237566 -8.3802814 -2.2338536 0
0.25371993 -8.4149332 -2.2432256 0
0.7531656 -8.4209261 -2.2528157 0
1.2517568 -8.3987932 -2.2627323 0
1.7546402 -8.3587761 -2.2759728 0
2.2492123 -8.2660265 -2.2828386 0
2.7481794 -8.125288 -2.2857864 0
3.062542 -8.0221424 -2.2879603 0
3.8708377 -8.4473162 -2.3048167 0
4.2554817 -8.2816944 -2.3098707 0
4.6684351 -8.0744171 -2.3135798 0
5.7661376 -8.4052515 -2.3423591 0
6.2465749 -8.1767941 -2.3647385 0
6.5365472 -8.0303221 -2.3793821 0
7.9594407 -8.4698286 -2.4602883 0
8.2849674 -8.3098927 -2.4842324 0
8.5361271 -8.0511713 -2.4839211 0
22.455959 -8.408803 -2.0936553 0
22.732801 -8.3130903 -2.1134684 0
24.676229 -8.2072334 -2.2709882 0
-3.0162308 -7.6602297 -2.0707164 0
-2.7604306 -7.6921191 -2.1772842 0
-2.2576241 -7.8664908 -2.1803904 0
-1.7296642 -7.688715 -2.108582 0
-1.2479947 -7.6665306 -2.0831921 0
-0.75377911 -7.776948 -2.0955973 0
-0.24595438 -7.8452082 -2.1052237 0
0.25547192 -7.8895249 -2.1172242 0
0.74526072 -7.8898239 -2.1256647 0
1.2508584 -7.861793 -2.1353433 0
1.7539854 -7.797081 -2.1437433 0
2.2529483 -7.6977181 -2.1515191 0
2.7077007 -7.5676422 -2.1559353 0
3.3168061 -7.9380746 -2.2925155 0
3.7514789 -7.7672386 -2.2987275 0
4.1481028 -7.5738444 -2.3011 0
4.9123101 -7.9452376 -2.3170586 0
5.2584033 -7.7355599 -2.3205149 0
5.5766134 -7.5325727 -2.3247726 0
6.7825165 -7.8966784 -2.3923223 0
7.1883206 -7.6461463 -2.4119554 0
8.7020864 -7.9061098 -2.4889107 0
24.826967 -7.7459679 -2.2711623 0
-3.0392306 -7.2704797 -2.0836923 0
-2.727731 -7.156703 -2.0538697 0
-2.2475741 -7.3282671 -2.055675 0
-1.8779656 -7.4632921 -2.0636125 0
2.9580264 -7.4867554 -2.1590614 0
3.2486629 -7.3792653 -2.1628823 0
3.747566 -7.1464415 -2.1647699 0
4.3540583 -7.3929138 -2.2877929 0
4.7513947 -7.2265105 -2.3049748 0
5.0561724 -7.0286732 -2.3071129 0
5.8150659 -7.411994 -2.3370399 0
6.2377372 -7.16605 -2.3571417 0
7.4446592 -7.4681621 -2.4233978 0
7.759902 -7.246285 -2.4404111 0
8.0305099 -7.023777 -2.4519665 0
24.894773 -7.2687993 -2.2647712 0
-3.0454166 -6.9055138 -2.016397 0
-2.9638159 -6.9836178 -2.0340192 0
4.2667522 -6.8686137 -2.1691978 0
4.661839 -6.6057878 -2.1687651 0
5.3006563 -6.8643818 -2.311254 0
5.6855946 -6.6116085 -2.3238714 0
6.7510543 -6.8266115 -2.3822162 0
7.0882001 -6.5744004 -2.3984828 0
8.3053722 -6.802731 -2.4677842 0
8.5233974 -6.5294895 -2.4677131 0
24.890924 -6.7684331 -2.2525692 0
4.9131017 -6.4385962 -2.1723471 0
5.2416329 -6.2056623 -2.1792939 0
5.8331404 -6.3408842 -2.2995248 0
6.2599578 -6.2322917 -2.3544536 0
6.5380311 -6.0231538 -2.3690569 0
7.3298373 -6.3661618 -2.4087818 0
7.6242523 -6.1195269 -2.4256411 0
8.7831678 -6.2844849 -2.4826069 0
9.0236311 -6.0246601 -2.4938073 0
24.885817 -6.2716317 -2.241123 0
5.7682872 -5.8262825 -2.1996548 0
6.0864921 -5.568821 -2.2130146 0
6.7872 -5.8199296 -2.3831537 0
7.0485091 -5.5686455 -2.3940761 0
7.8761201 -5.8744016 -2.4379275 0
8.1241064 -5.6190486 -2.4509766 0
9.1005154 -5.9341536 -2.4971366 0
24.884539 -5.7802424 -2.2308967 0
6.3445334 -5.3332424 -2.2236664 0
6.5899873 -5.085938 -2.2331605 0
7.3134489 -5.2781181 -2.4042406 0
7.5252142 -5.0178652 -2.4106407 0
8.379756 -5.2925439 -2.459378 0
8.5306082 -5.0438843 -2.458894 0
24.884579 -5.2529616 -2.2209277 0
6.8408723 -4.8201799 -2.2453296 0
7.0475411 -4.5672593 -2.2530165 0
7.7440476 -4.7561464 -2.4226875 0
8.7561283 -4.7627439 -2.473603 0
24.859962 -4.8857508 -2.2123613 0
7.2802606 -4.2523427 -2.2624381 0
7.9645433 -4.4430904 -2.4308286 0
8.1204967 -4.1916342 -2.4360049 0
8.9646778 -4.4179506 -2.4798605 0
9.0936422 -4.1721697 -2.4826834 0
22.335606 -4.2039838 -2.3837507 0
7.4780083 -3.9574239 -2.2698624 0
7.6074271 -3.7148275 -2.2715988 0
8.344327 -3.7481098 -2.4385114 0
9.3214445 -3.7612038 -2.4944835 0
22.332338 -3.7736418 -2.375484 0
24.658367 -3.5539219 -2.1754072 0
7.8268423 -3.2523437 -2.2743285 0
8.4669781 -3.4324234 -2.4351766 0
8.6049137 -3.1960623 -2.4468751 0
22.342119 -3.3830633 -2.3699739 0
22.755899 -3.2767458 -2.2765858 0
24.678648 -3.2447445 -2.1735148 0
7.9693069 -2.9133136 -2.2765117 0
8.0619335 -2.6683297 -2.2784922 0
8.7749481 -2.7571394 -2.4520245 0
24.80706 -2.7525213 -2.1794746 0
8.2114067 -2.2583582 -2.2852497 0
8.9375849 -2.2708216 -2.4582939 0
9.0042133 -2.0213203 -2.4598165 0
24.872618 -2.2908649 -2.1811016 0
8.3178368 -1.7571164 -2.2811966 0
9.0536251 -1.755185 -2.4584932 0
17.185453 -1.8679317 -2.4227252 0
24.849602 -1.6018198 -2.1743615 0
8.3956833 -1.2493734 -2.277643 0
9.133255 -1.2477212 -2.4574006 0
16.421324 -1.3735743 -2.3091602 0
16.638378 -1.2317684 -2.2114713 0
24.852051 -1.2534112 -2.1728673 0
8.4760065 -0.74306411 -2.2831163 0
9.1958523 -0.75241977 -2.4596338 0
24.844343 -0.75129342 -2.1704104 0
8.4978905 -0.21747784 -2.2812381 0
8.5021715 -0.26328057 -2.2823038 0
9.210309 -0.25351861 -2.4562502 0
10.060164 -0.046061113 -2.4963112 0
24.846544 -0.24842808 -2.1697297 0
8.4733524 0.25597695 -2.2746704 0
9.179493 0.25860026 -2.4480257 0
9.9780874 0.35811934 -2.4774952 0
10.018661 0.10979324 -2.4861279 0
24.716272 0.25184652 -2.1583247 0
8.3821402 0.74579972 -2.2579434 0
9.1155405 0.75261438 -2.4381974 0
9.8995371 0.75205517 -2.4636188 0
22.306911 0.82156134 -2.3411031 0
24.645859 0.55600441 -2.1525726 0
8.2700548 1.2434536 -2.2438817 0
8.975297 1.429603 -2.4223738 0
9.046133 1.171006 -2.4313862 0
9.7935886 1.2502891 -2.4498825 0
22.298649 1.2374846 -2.342274 0
8.1685734 1.7481436 -2.241329 0
8.8562164 1.7513336 -2.4063847 0
9.7123442 1.7459667 -2.4486482 0
22.279316 1.6076291 -2.3426919 0
24.623707 1.9647363 -2.1569302 0
7.931437 2.3245862 -2.2172656 0
8.0423412 2.0775979 -2.228281 0
8.6762695 2.2504783 -2.3892105 0
9.4837685 2.4601507 -2.4308312 0
9.5822668 2.2167811 -2.4404435 0
10.59492 2.2775404 -2.4910181 0
16.652515 2.4626322 -2.20995 0
21.990936 2.445787 -2.3205318 0
24.774261 2.250654 -2.1722116 0
7.7367096 2.7437515 -2.2023525 0
8.3774691 2.837661 -2.3573239 0
8.5343084 2.5847933 -2.3764763 0
9.3651686 2.7387531 -2.4211006 0
10.393 2.7569201 -2.4715374 0
16.625635 2.6231575 -2.2735136 0
21.929604 2.5448537 -2.3153055 0
24.843136 2.7634168 -2.1827285 0
7.3912864 3.3377469 -2.1754732 0
7.5541883 3.0799239 -2.1882379 0
8.1533642 3.2623017 -2.3405523 0
8.9776087 3.4648066 -2.3872855 0
9.1210289 3.2127159 -2.3993533 0
10.156749 3.2599182 -2.4518607 0
11.278885 3.4997783 -2.4999301 0
24.83954 3.2632115 -2.1876671 0
6.9406924 3.9451573 -2.1411731 0
7.1381564 3.7013378 -2.1568673 0
7.8322902 3.7700508 -2.3166656 0
8.0159998 3.515672 -2.3324773 0
8.7782993 3.7472701 -2.3681619 0
9.8662739 3.7637391 -2.427053 0
10.015365 3.5265739 -2.440269 0
11.183354 3.7570033 -2.4976134 0
24.843235 3.729414 -2.1937099 0
6.4823861 4.4803567 -2.1132123 0
6.6968627 4.2299495 -2.124718 0
7.3748956 4.3586087 -2.2827151 0
7.5782108 4.1064205 -2.2967026 0
8.3346004 4.33183 -2.3301919 0
8.5505056 4.0816503 -2.3503518 0
9.4369144 4.413619 -2.3941219 0
9.6179552 4.1569467 -2.4080262 0
10.885473 4.326829 -2.4797437 0
11.055657 4.0815568 -2.4947739 0
24.707127 4.2218218 -2.1887546 0
5.9839973 4.9895015 -2.089246 0
6.2262487 4.7464886 -2.100091 0
6.9014859 4.8979464 -2.2548316 0
7.1247053 4.6510262 -2.267107 0
7.9105186 4.922688 -2.31108 0
8.1027918 4.6830883 -2.321557 0
9.1867199 4.7510743 -2.3769987 0
10.455051 4.9432898 -2.4479523 0
10.632577 4.6872492 -2.4598193 0
24.596527 4.7561159 -2.1876092 0
5.3859138 5.4257054 -2.0499101 0
5.742825 5.1719499 -2.0727909 0
6.3812861 5.3969808 -2.2266202 0
6.6520634 5.1493435 -2.2413728 0
7.4382348 5.4303246 -2.2842264 0
7.6657023 5.1896071 -2.2963228 0
8.7635365 5.2439709 -2.347075 0
10.19874 5.2530875 -2.4285476 0
22.312057 5.307097 -2.1853633 0
22.738819 5.09795 -2.0345635 0
24.580957 5.2304401 -2.1945119 0
4.7793102 5.837954 -2.0232084 0
5.1311522 5.5813756 -2.0328166 0
5.7417126 5.8309698 -2.1802917 0
6.1285248 5.5881925 -2.2095382 0
6.854351 5.9024663 -2.2434225 0
7.1891952 5.6525469 -2.2684305 0
8.2531052 5.7343593 -2.3094547 0
8.5218096 5.5001311 -2.3304927 0
9.7671261 5.7583709 -2.4001324 0
11.347268 5.8826718 -2.4751742 0
11.53548 5.7322822 -2.4945097 0
22.290213 5.7594962 -2.2121205 0
3.969599 6.3211722 -2.0010216 0
4.2539315 6.1634135 -2.0081773 0
4.7787261 6.3552856 -2.1193852 0
5.235836 6.1347961 -2.148648 0
5.9676247 6.4834976 -2.1850386 0
6.2511268 6.3074827 -2.202503 0
6.6064725 6.0749712 -2.2257891 0
7.4315462 6.4580688 -2.2619281 0
7.7472229 6.2210455 -2.2831185 0
8.0293388 6.016675 -2.3052983 0
8.9969578 6.4965215 -2.3485706 0
9.2632008 6.2626982 -2.366823 0
9.5221815 6.0200062 -2.3843315 0
10.929399 6.443573 -2.4568565 0
11.125869 6.1915593 -2.4657378 0
21.551094 6.1118574 -2.3493817 0
22.265522 6.1103301 -2.2591577 0
3.7853432 6.9136896 -2.099437 0
4.2569666 6.7015109 -2.1148341 0
4.6244473 6.607656 -2.1254575 0
5.2494736 6.8667045 -2.1433797 0
5.7146592 6.6299672 -2.1706307 0
6.7688918 6.8450794 -2.2116687 0
7.1894689 6.6082487 -2.2434888 0
8.4256334 6.9400878 -2.3100374 0
8.7497101 6.6969409 -2.3320847 0
10.383094 6.8994436 -2.4139247 0
10.669346 6.6458759 -2.4340982 0
1.4438444 7.497859 -2.0330753 0
1.7504456 7.4534736 -2.0389516 0
2.2463291 7.3772473 -2.0537906 0
2.7533798 7.2678699 -2.0699878 0
3.247555 7.1137505 -2.0828273 0
3.7795019 7.3049641 -2.0932441 0
4.2507501 7.3463125 -2.1045363 0
4.7346358 7.1080408 -2.1177359 0
5.7422833 7.3638358 -2.1450331 0
6.2452049 7.1293607 -2.1773369 0
6.5249624 7.0002718 -2.1982217 0
7.4859796 7.4997096 -2.2421196 0
7.7593975 7.3515124 -2.2620304 0
8.1813993 7.1025543 -2.2927744 0
9.4995708 7.4986162 -2.3431344 0
9.7601175 7.3709059 -2.3682039 0
10.154834 7.1413717 -2.4038539 0
16.362152 7.3145795 -2.1947627 0
23.490568 7.4451056 -2.151701 0
23.610136 7.2806106 -2.1573951 0
24.161207 7.2861595 -2.2036459 0
24.558256 7.3216252 -2.2378109 0
0.79360604 7.5105939 -2.011024 0
1.1982079 7.5146723 -2.0262942 0
1.8637246 7.9788594 -2.0310152 0
2.2538736 7.9212203 -2.0416679 0
2.749655 7.8319101 -2.0578842 0
3.2515225 7.7035623 -2.0731256 0
3.6844716 7.5611849 -2.0853021 0
4.3960114 7.9631004 -2.0888956 0
4.7527466 7.8170133 -2.1012795 0
5.2403536 7.6021872 -2.1208386 0
5.5072627 7.5094519 -2.1388345 0
6.7895312 7.8923111 -2.2028656 0
7.2487516 7.6508436 -2.2302165 0
8.9448814 7.9605927 -2.318202 0
9.2392673 7.7216187 -2.3314617 0
11.759055 7.7847605 -2.4783068 0
12.021469 7.5651093 -2.4960189 0
23.452784 7.7547994 -2.1569302 0
28.031822 7.8900547 -2.0329828 0
1.3170091 8.0240335 -2.015564 0
1.6106772 8.0099468 -2.0251284 0
2.4804547 8.4979429 -2.0326579 0
2.7504892 8.4527769 -2.0413713 0
3.2522097 8.3355675 -2.0548527 0
3.7480323 8.1977358 -2.0702126 0
4.1482639 8.0570354 -2.0811656 0
5.296443 8.4668541 -2.1127028 0
5.7498612 8.3377609 -2.1427898 0
6.2406034 8.127037 -2.168005 0
6.5268202 8.0073814 -2.1855676 0
8.268858 8.3521624 -2.2753699 0
8.7107162 8.1215 -2.3057358 0
10.898858 8.4131269 -2.4192665 0
11.249696 8.1915197 -2.4454291 0
11.534769 8.0221558 -2.4689298 0
27.968573 8.2813692 -2.0363312 0
28.005648 8.0552616 -2.0343778 0
1.4317813 8.6041994 -2.0026643 0
1.7549073 8.5784969 -2.0106628 0
2.2326038 8.5260057 -2.0238712 0
3.813822 8.9449615 -2.0568008 0
4.2493701 8.8443117 -2.0756435 0
4.7484417 8.6552544 -2.0884495 0
5.0418224 8.5184793 -2.0938094 0
6.9269691 8.9584694 -2.1918609 0
7.2553797 8.8311758 -2.2124577 0
7.7444315 8.6420298 -2.2464759 0
8.021925 8.5170269 -2.2649026 0
10.274806 8.8544331 -2.3833079 0
10.653258 8.6000204 -2.4057217 0
2.266181 9.2293768 -2.009979 0
2.7378926 9.1683722 -2.0238369 0
3.2470367 9.096777 -2.0430627 0
3.5759521 9.040801 -2.05633 0
4.9433031 9.4793825 -2.0687513 0
5.2549238 9.468214 -2.09567 0
5.7435722 9.3044205 -2.1163187 0
6.250792 9.1766119 -2.149018 0
6.6672211 9.0804501 -2.180496 0
8.9067688 9.4752035 -2.2845154 0
9.2601328 9.4669895 -2.3266773 0
9.7433386 9.2209177 -2.3571236 0
10.01833 9.0204353 -2.368561 0
2.8455882 9.9585066 -2.0039186 0
3.2452271 9.9543514 -2.0259843 0
3.7376115 9.8313313 -2.0353117 0
4.2527013 9.76159 -2.0605338 0
4.6948166 9.6143923 -2.0705416 0
7.8629398 9.9423857 -2.2266326 0
8.2260494 9.887455 -2.25951 0
8.676054 9.7024517 -2.286706 0
11.879625 9.9169998 -2.4433811 0
12.184768 9.9167328 -2.4806335 0
2.4689093 10.040429 -2.0004416 0
2.5168791 10.032547 -2.0012047 0
6.7640967 10.337922 -2.1700568 0
7.2625799 10.242804 -2.2056098 0
7.6243458 10.108125 -2.2240858 0
10.849913 10.355292 -2.3679485 0
11.276782 10.34199 -2.4158485 0
11.674857 10.217245 -2.4497011 0
18.236485 10.224598 -2.19238 0
3.2639883 10.968327 -2.0094569 0
3.7413313 10.882764 -2.0208478 0
4.2653036 10.863148 -2.0494759 0
4.7377391 10.722793 -2.0587232 0
5.2481875 10.695903 -2.0924027 0
5.7342024 10.593099 -2.1156301 0
6.2525601 10.547709 -2.1536796 0
6.5345917 10.533337 -2.1772008 0
9.8330908 10.859477 -2.312727 0
10.270569 10.85597 -2.3593891 0
10.644272 10.706577 -2.3836441 0
7.9059505 11.48 -2.2000945 0
8.0336857 11.480322 -2.2116704 0
8.7738171 11.297447 -2.2580795 0
9.2729921 11.23632 -2.2998548 0
9.6274204 11.138915 -2.3243034 0
4.8336606 11.96347 -2.0360816 0
5.311841 11.986518 -2.0690472 0
5.7385764 11.873547 -2.0812042 0
6.2843323 11.900006 -2.123925 0
6.7554741 11.77139 -2.1421092 0
7.2699671 11.759518 -2.1821566 0
7.6848183 11.648925 -2.202785 0
8.2953033 11.54481 -2.2440002 0
8.5394602 11.540542 -2.2662137 0
20.607841 11.866881 -2.3084657 0
3.9427459 12.070809 -2.0036125 0
4.2596059 12.079289 -2.0211332 0
4.5827708 12.033025 -2.0317707 0
5.213788 12.004154 -2.0652475 0
11.891782 12.404074 -2.4082515 0
12.321778 12.432845 -2.4533434 0
12.684869 12.217028 -2.468436 0
20.553265 12.073807 -2.2903483 0
24.709631 12.421128 -2.4153764 0
10.454877 12.997721 -2.3375514 0
10.748756 12.905256 -2.3537509 0
11.242623 12.714759 -2.378623 0
11.67673 12.601207 -2.4076948 0
24.376661 12.63519 -2.3979449 0
24.706451 12.609848 -2.422581 0
7.9107156 13.424271 -2.183125 0
8.285161 13.390866 -2.2063577 0
8.7763157 13.349993 -2.2386458 0
9.2583075 13.258863 -2.2660475 0
9.7466011 13.158077 -2.2946243 0
10.211012 13.057295 -2.3228686 0
32.958096 13.200912 -2.4792848 0
4.2859764 13.672179 -2.007 0
4.7370391 13.614028 -2.0191739 0
5.2376795 13.627037 -2.0450652 0
5.7325487 13.634572 -2.0720088 0
6.2372713 13.631479 -2.100122 0
6.7360153 13.605456 -2.1269546 0
7.2263327 13.581187 -2.1553891 0
7.651123 13.555403 -2.1808822 0
40.910736 13.854259 -2.2611225 0
40.92371 14.0021 -2.2642629 0
13.249092 14.936028 -2.4456131 0
13.78288 14.827502 -2.4797974 0
14.070198 14.764799 -2.4983215 0
7.9249282 15.444896 -2.1255639 0
8.1034393 15.435738 -2.1346633 0
9.3547058 15.487567 -2.2157063 0
9.7257853 15.443089 -2.2350228 0
10.223434 15.372195 -2.26092 0
10.73638 15.319404 -2.2910826 0
11.23327 15.261373 -2.3208797 0
11.737805 15.190851 -2.3512862 0
12.26337 15.128968 -2.3853662 0
12.736659 15.037326 -2.413779 0
5.2979326 15.533155 -2.0092425 0
5.739439 15.549157 -2.0292599 0
6.2489524 15.643116 -2.0624559 0
6.7361817 15.614687 -2.082211 0
7.2415543 15.573256 -2.1029167 0
7.6992197 15.596704 -2.1297886 0
8.3705616 15.535316 -2.1608653 0
8.7377033 15.539554 -2.1831064 0
9.107379 15.512405 -2.2027884 0
6.3893938 18.053596 -2.0077825 0
6.7578712 18.215237 -2.0369985 0
7.2446899 18.142822 -2.0482874 0
7.76969 18.292273 -2.0838099 0
8.2528496 18.308693 -2.1057782 0
8.7818604 18.333895 -2.1316042 0
9.2712555 18.352116 -2.156034 0
9.7610979 18.388639 -2.1831119 0
10.253648 18.408281 -2.2096722 0
10.773649 18.387356 -2.2348781 0
11.258355 18.354385 -2.2580938 0
11.73635 18.386871 -2.2876403 0
12.244121 18.414497 -2.3192079 0
12.726222 18.385439 -2.3451309 0
13.255079 18.345463 -2.3738115 0
13.743985 18.293682 -2.3998899 0
14.234916 18.294775 -2.4313321 0
14.764014 18.276293 -2.4643631 0
15.200569 18.228287 -2.4895544 0
7.3655968 21.776506 -2.0070226 0
7.6611838 21.864309 -2.0227103 0
16.443832 21.956499 -2.3957369 0
16.757835 21.802847 -2.4016638 0
17.255756 21.744143 -2.4244113 0
17.794914 21.788492 -2.4570251 0
18.310801 21.861227 -2.4906788 0
7.946053 22.014751 -2.0434537 0
8.2593374 22.019442 -2.0533311 0
8.7567711 22.083075 -2.0741904 0
9.2674856 22.187111 -2.0994656 0
9.7358456 22.249685 -2.1206038 0
10.248097 22.368858 -2.1484473 0
10.741302 22.425385 -2.1712239 0
11.234473 22.458143 -2.1927805 0
11.709282 22.441925 -2.2104092 0
12.126554 22.469284 -2.2296181 0
13.07614 22.482912 -2.2712789 0
16.225981 22.236036 -2.404104 0
12.28158 22.536663 -2.2412972 0
12.728621 22.522943 -2.2592163 0
13.313736 22.59642 -2.2903831 0
13.8206 22.692257 -2.3203473 0
14.27183 22.789415 -2.3483243 0
14.673149 22.71727 -2.361851 0
15.1613 22.923069 -2.400269 0
16.065411 22.600117 -2.4217093 0
17.336239 22.953192 -2.0080564 0
17.572279 22.92094 -2.0162413 0
18.045849 22.962492 -2.0388422 0
19.241774 22.693293 -2.0771618 0
21.593159 22.966284 -2.2009563 0
25.182991 22.809437 -2.3725572 0
25.751146 22.962036 -2.4092488 0
26.25806 22.836462 -2.4300363 0
26.556168 22.949467 -2.4509633 0
27.06741 22.81142 -2.4718904 0
15.45968 23.136259 -2.4302509 0
15.83163 23.22913 -2.4552121 0
16.136652 23.078806 -2.4595349 0
17.327307 23.041813 -2.0126138 0
18.194386 23.322208 -2.0650706 0
18.925304 23.476246 -2.1052504 0
19.248016 23.354202 -2.1129236 0
20.847603 23.378534 -2.1870048 0
21.469942 23.037951 -2.198724 0
21.596811 23.328558 -2.2196507 0
24.722784 23.033257 -2.3594429 0
25.162033 23.258921 -2.3927169 0
25.892633 23.088413 -2.4225028 0
26.261641 23.056679 -2.4403605 0
18.836918 23.593147 -2.1077614 0
20.967318 23.661858 -2.2073739 0
24.701265 23.666035 -2.3887405 0
25.048149 23.69809 -2.4078541 0
30.126545 23.903164 -2.0129454 0
29.981562 24.011431 -2.0105381 0
33.593102 24.379309 -2.1727796 0
37.910301 24.485722 -2.3626544 0
38.034119 24.396685 -2.3655853 0
54.246979 26.81753 -2.1115124 0
53.46505 27.374268 -2.0958543 0
7.4947329 27.660906 -2.0006156 0
7.6950684 27.712061 -2.0077772 0
53.409336 27.652931 -2.0985765 0
53.545502 27.937035 -2.1073711 0
8.2073078 28.203953 -2.050673 0
53.587788 28.256506 -2.1138625 0
8.6015396 28.568598 -2.0829284 0
8.8974628 29.208591 -2.131758 0
17.994558 30.454998 -2.4702163 0
18.171745 30.430923 -2.4750991 0
16.263626 30.707678 -2.4265022 0
16.772532 30.855247 -2.4524283 0
17.309887 30.921099 -2.474611 0
17.667637 30.990776 -2.4911432 0
15.946805 31.396515 -2.4590552 0
16.254826 31.283129 -2.4618456 0
19.115536 36.447029 -2.1543572 0
18.969154 36.590988 -2.1574974 0
24.406681 36.60762 -2.3033054 0
26.252142 36.888252 -2.3702955 0
8.1999683 37.452435 -2.0067699 0
9.2049084 37.308662 -2.0113754 0
8.1505661 37.794273 -2.0237267 0
9.1676435 37.918159 -2.0419397 0
10.212327 37.608849 -2.0398462 0
16.861134 37.993774 -2.1759195 0
8.0725069 38.011143 -2.0339844 0
9.0915928 38.108963 -2.0507321 0
10.164346 38.120171 -2.0650721 0
11.059883 38.342186 -2.0888326 0
10.99966 38.588005 -2.1003466 0
15.30629 38.893311 -2.1879573 0
15.222398 39.202789 -2.2014596 0
14.776469 39.885899 -2.2266505 0
15.215861 39.927029 -2.236769 0
56.875317 39.762383 -2.4216993 0
14.43113 40.301567 -2.240921 0
14.568367 40.088627 -2.232861 0
14.233757 40.747677 -2.2595177 0
14.053993 41.256268 -2.2816384 0
13.917736 41.698475 -2.3013167 0
13.800003 42.216934 -2.325182 0
13.749405 42.73732 -2.3503032 0
38.301575 42.64637 -2.0000205 0
38.761654 42.618252 -2.0100715 0
13.689301 43.24073 -2.3744822 0
45.274567 43.329872 -2.1867328 0
45.555222 43.18895 -2.1904321 0
47.666626 43.673172 -2.2559035 0
48.209412 43.617348 -2.2686067 0
48.749981 43.6982 -2.2845211 0
49.282806 43.758369 -2.2998071 0
49.783436 43.798721 -2.3138368 0
50.282303 43.820515 -2.3274474 0
52.389999 44.103638 -2.3897781 0
52.869377 44.110336 -2.4027605 0
53.3675 44.136383 -2.4167204 0
53.780804 44.194344 -2.4291444 0
54.160942 44.22234 -2.4400332 0
20.727219 53.918201 -2.0155156 0
20.70677 56.900654 -2.1128154 0
20.704079 57.450089 -2.1308236 0
20.586067 57.662296 -2.1364076 0
20.442659 58.416817 -2.1595809 0
20.429237 58.971779 -2.1777287 0
20.391771 59.466717 -2.1936426 0
15.362348 60.275352 -2.1704695 0
15.691734 60.382446 -2.1769609 0
16.417839 60.443951 -2.1855462 0
16.618191 60.389175 -2.1855462 0
15.256044 60.603317 -2.18066 0
15.232207 61.235649 -2.201879 0
2.3585572 -55.51622 -1.9387368 0
10.215539 -55.639664 -1.973776 0
10.724457 -55.961014 -1.9880848 0
1.907238 -55.053497 -1.9219851 0
2.1722121 -55.187767 -1.9270107 0
10.363896 -55.46582 -1.9687504 0
1.0354065 -50.046947 -1.7463708 0
1.3348693 -49.602467 -1.7311082 0
-4.2568345 -48.188202 -1.6876465 0
10.234809 -48.116211 -1.7161711 0
-4.6808681 -47.874557 -1.6781074 0
-3.9370158 -47.945473 -1.6782469 0
-0.7915529 -47.532364 -1.658424 0
-0.49480885 -47.712517 -1.6645664 0
0.76573789 -47.900787 -1.671267 0
4.9851904 -47.695114 -1.6729423 0
5.2317376 -47.847603 -1.6791544 0
5.7230883 -47.53973 -1.6704295 0
28.975319 -47.87674 -1.952557 0
29.231951 -47.807114 -1.9551396 0
-3.3467441 -47.03846 -1.6450925 0
-2.7615664 -47.113243 -1.6463838 0
-0.79087585 -47.488632 -1.6568885 0
2.3029959 -47.272419 -1.651072 0
2.7328587 -47.080017 -1.6451622 0
3.4667974 -47.368523 -1.6568885 0
3.6921756 -47.379501 -1.6578658 0
5.5598755 -47.430302 -1.6659623 0
-4.7314615 -46.873257 -1.6434871 0
-2.3093789 -46.816612 -1.635181 0
3.0120914 -46.882874 -1.6388804 0
6.8040004 -46.718372 -1.6469771 0
-13.501049 -45.919365 -1.6697316 0
-12.699453 -45.807163 -1.6582844 0
-12.42684 -45.915245 -1.6594013 0
-8.6429939 -45.681385 -1.6218494 0
-8.4650555 -45.523602 -1.6152884 0
-7.8283815 -45.635307 -1.6152185 0
-7.2382317 -45.601086 -1.6106815 0
-6.8010254 -45.595581 -1.6081688 0
-4.7414446 -45.610428 -1.5996532 0
-13.1201 -45.118626 -1.6391596 0
-12.801796 -45.259457 -1.6408348 0
-12.138915 -45.417278 -1.6399971 0
-11.846624 -45.176186 -1.6292481 0
-11.03964 -45.166229 -1.6219889 0
-10.809374 -45.11496 -1.6183594 0
-9.2838888 -45.212704 -1.6101232 0
-8.7709656 -45.190754 -1.6058655 0
-7.5713434 -45.421387 -1.606354 0
-7.2168393 -45.468441 -1.6060052 0
-6.5609102 -45.424828 -1.6010493 0
-5.5405684 -45.093369 -1.5848559 0
-5.3291521 -45.07048 -1.5831807 0
-4.830812 -45.102551 -1.5823432 0
-11.566814 -44.972195 -1.6198951 0
-11.274789 -44.93626 -1.6161723 0
-10.393631 -44.61348 -1.5979781 0
-9.0887012 -44.97913 -1.6007701 0
-8.9311543 -44.921013 -1.5976989 0
-3.5389724 -44.833294 -1.5688021 0
-3.4093175 -44.99168 -1.5739673 0
-1.7834905 -44.636845 -1.5583323 0
-1.0938356 -44.811447 -1.563637 0
-0.18679744 -44.764282 -1.5615432 0
3.0793543 -44.76899 -1.565382 0
3.7654176 -44.68441 -1.5642653 0
4.3929911 -44.669312 -1.5657309 0
4.537549 -44.7071 -1.5675458 0
-1.7768853 -44.4575 -1.5520504 0
-0.18684505 -44.044926 -1.5364153 0
0.22883132 -44.234394 -1.5430462 0
0.50565046 -44.18634 -1.541441 0
-8.5501232 -36.484303 -1.9613422 0
-8.3441334 -36.376202 -1.9533873 0
-4.7840328 -33.457481 -1.7687459 0
-3.5500884 -30.600691 -1.6119475 0
-3.4591765 -30.619137 -1.6123661 0
-8.5656824 -29.134699 -1.5889894 0
-8.7369661 -28.748564 -1.572172 0
22.591522 -28.814825 -1.9164032 0
24.902338 -28.701349 -1.9889059 0
20.344334 -28.108669 -1.815953 0
20.640524 -28.053144 -1.8227566 0
22.715111 -28.331402 -1.9005803 0
23.178566 -28.274199 -1.9135422 0
25.243866 -28.461815 -1.9912784 0
-8.1644773 -27.350798 -1.9925936 0
-7.9183922 -27.447075 -1.9941981 0
-8.5771399 -26.192347 -1.9238836 0
-8.6085558 -25.741936 -1.894679 0
-3.5041301 -25.948788 -1.8276197 0
-3.3823249 -25.968937 -1.8278986 0
-8.6348057 -25.167164 -1.8571963 0
-8.6315756 -24.661514 -1.8237133 0
17.163385 -24.58946 -1.569032 0
24.871567 -24.697237 -1.8344101 0
-8.6826706 -24.321812 -1.8025074 0
17.260674 -24.482132 -1.5673573 0
22.565159 -24.200817 -1.7315874 0
24.868973 -24.236618 -1.8173834 0
-8.6706142 -23.825657 -1.7695823 0
22.563042 -23.761086 -1.7147353 0
24.86454 -23.784979 -1.8007755 0
-8.6610975 -23.253653 -1.7318207 0
22.695604 -23.319172 -1.7028549 0
23.019775 -23.285442 -1.7134793 0
24.863968 -23.274019 -1.7823534 0
-8.6884346 -22.784286 -1.7017789 0
24.869471 -22.916216 -1.7697928 0
-8.7168179 -22.234144 -1.6666217 0
-6.103828 -22.055889 -1.9979582 0
25.057104 -22.240128 -1.7533242 0
-8.7304382 -21.674965 -1.6306273 0
-6.3333473 -21.793549 -1.9813987 0
25.035252 -21.740664 -1.7351987 0
-8.7313414 -21.197731 -1.5997485 0
-6.939827 -21.093176 -1.938518 0
-8.8285065 -20.792271 -1.5762172 0
-8.9008446 -20.259008 -1.5439898 0
-7.6767821 -20.218054 -1.887893 0
-7.4477553 -20.472443 -1.9017384 0
22.592735 -20.367838 -1.5916412 0
-8.9538603 -19.78908 -1.5154825 0
-8.099864 -19.750242 -1.8633897 0
-7.9280534 -19.938581 -1.873035 0
-4.1575127 -19.723173 -1.7592678 0
-3.7392373 -19.6758 -1.7480828 0
-3.2770646 -19.781019 -1.7500291 0
24.856195 -19.578272 -1.6557003 0
-8.6975574 -19.082129 -1.8305029 0
-3.7527623 -19.466572 -1.7302854 0
-3.2747304 -19.338091 -1.7117387 0
22.542572 -19.159737 -1.547958 0
24.845213 -19.261162 -1.6450238 0
-8.8131876 -18.719837 -1.8060064 0
22.481659 -18.691492 -1.5297277 0
24.84387 -18.768345 -1.6292706 0
-8.8756418 -18.258392 -1.7719344 0
22.728638 -18.365747 -1.5289217 0
23.057775 -18.278416 -1.5395145 0
24.841358 -18.285603 -1.6140409 0
-8.8876362 -17.789679 -1.7356194 0
-6.1121593 -17.580715 -1.9512537 0
-5.9572563 -17.75444 -1.9632537 0
24.851145 -17.880848 -1.6019688 0
25.014164 -17.760567 -1.6052485 0
-8.8989382 -17.271204 -1.6956149 0
-6.545454 -17.031418 -1.9126618 0
-6.3711514 -17.293709 -1.9320444 0
24.916439 -17.231825 -1.5851514 0
25.010002 -17.134581 -1.5863028 0
-8.8950081 -16.750492 -1.6550875 0
-7.0296578 -16.507095 -1.8806762 0
-6.8016763 -16.76137 -1.89623 0
24.995594 -16.670633 -1.5720675 0
25.012867 -16.963783 -1.5813833 0
-8.9011755 -16.225924 -1.614961 0
-7.2685237 -16.222231 -1.8633816 0
24.986731 -16.164074 -1.5570993 0
25.00618 -16.397879 -1.5646358 0
-8.9085598 -15.717041 -1.5763859 0
-7.710649 -15.754766 -1.8385987 0
-4.5975418 -15.613349 -1.9925638 0
-4.4935379 -15.69945 -1.9991447 0
17.135361 -15.63377 -1.6186292 0
24.995369 -15.951298 -1.5514472 0
-8.9359055 -15.320964 -1.5475373 0
-8.2203741 -15.217167 -1.8128657 0
-7.9608173 -15.474928 -1.8240217 0
-5.2645788 -15.079908 -1.9552717 0
-3.3851779 -15.263069 -1.7759218 0
-8.5304213 -14.891669 -1.7987258 0
-8.4684734 -14.945255 -1.8003983 0
-5.6945658 -14.678525 -1.9273393 0
-5.4218283 -14.931195 -1.9445472 0
-6.2434239 -14.186585 -1.8973367 0
-5.9451299 -14.45634 -1.9133487 0
22.45989 -14.074631 -1.8500812 0
24.77367 -14.167334 -1.992245 0
-8.9188671 -13.745204 -1.7171339 0
-6.6968694 -13.744068 -1.8714256 0
22.478876 -13.75325 -1.8393946 0
24.720694 -13.584681 -1.9690858 0
-8.9742355 -13.282895 -1.6798141 0
-7.1764722 -13.191467 -1.8380557 0
-6.9424033 -13.439671 -1.8514391 0
22.664825 -13.338223 -1.8356184 0
24.767038 -13.259907 -1.9611335 0
-8.9580889 -12.782395 -1.635522 0
-7.5293055 -12.833033 -1.8209717 0
-7.4241271 -12.926142 -1.8243841 0
-5.5122223 -12.531303 -1.9172486 0
-5.3982201 -12.641663 -1.925135 0
24.879362 -12.728406 -1.9508561 0
-8.9638615 -12.257021 -1.590983 0
-8.1030073 -12.110772 -1.7832733 0
-7.9488335 -12.288776 -1.7911137 0
-6.0560012 -12.11131 -1.8963171 0
-5.7525921 -12.34048 -1.9068856 0
-3.8174701 -12.342605 -1.5804015 0
-3.1147208 -12.28729 -1.9094785 0
24.950506 -12.235094 -1.9398438 0
-8.809166 -11.669559 -1.6375394 0
-8.3480339 -11.843485 -1.7732966 0
-6.5534286 -11.539051 -1.8582393 0
-6.306077 -11.777839 -1.8709575 0
-4.0264168 -11.550724 -1.7123858 0
-3.7746644 -11.737721 -1.6745856 0
-3.2476892 -11.759094 -1.7892069 0
16.796909 -11.793831 -1.7913991 0
24.94112 -11.759257 -1.9248321 0
-9.0024347 -11.045552 -1.7437066 0
-8.8934841 -11.320564 -1.6869084 0
-6.6687913 -11.450957 -1.8555951 0
-5.1007733 -11.088849 -1.925604 0
-4.7817631 -11.205215 -1.9220582 0
-4.2502213 -11.212132 -1.7802867 0
-3.7468417 -11.140853 -1.8541577 0
-3.2965376 -11.223831 -1.8452491 0
24.942345 -11.242684 -1.9097925 0
-9.0337706 -10.741856 -1.717491 0
-7.2749815 -10.708826 -1.8127929 0
-5.6288586 -10.590099 -1.8919531 0
-5.3438582 -10.853476 -1.9085574 0
-3.7482836 -10.665344 -1.985059 0
-3.2037351 -10.862087 -1.9886189 0
24.945494 -10.736015 -1.895702 0
-9.0837946 -10.247873 -1.6755817 0
-7.6933484 -10.228332 -1.7921122 0
-7.4510379 -10.46957 -1.7992297 0
-6.0359411 -10.228539 -1.8734591 0
-5.8852024 -10.372653 -1.8813155 0
-4.5883417 -10.060569 -1.9412708 0
-4.2483912 -10.31988 -1.9596007 0
24.972862 -10.42668 -1.8890054 0
-9.0717068 -9.7358408 -1.6280525 0
-8.089201 -9.6907959 -1.7673746 0
-7.9339943 -9.9356041 -1.7801911 0
-6.5644708 -9.6007462 -1.8344845 0
-6.4642415 -9.7389336 -1.8437366 0
-5.0270185 -9.6901321 -1.9163814 0
-4.8405018 -9.8422937 -1.9256248 0
-3.626514 -9.6016808 -1.9857703 0
-3.4832482 -9.7205172 -1.9977701 0
-9.0875492 -9.2512875 -1.5864139 0
-8.5210266 -9.0339737 -1.7385504 0
-8.3355055 -9.2898359 -1.7474974 0
-7.0379753 -9.069046 -1.8105724 0
-6.8159332 -9.3095951 -1.8199586 0
-5.3339601 -9.3716154 -1.8929967 0
-4.1889462 -9.1588659 -1.9484905 0
-3.8655472 -9.3921871 -1.9649509 0
22.439363 -9.1228828 -1.6904783 0
-9.0963535 -8.7571487 -1.5444909 0
-8.6691294 -8.7514095 -1.7245934 0
-7.236464 -8.7517395 -1.7911748 0
-6.0665398 -8.5629959 -1.8419441 0
