# .PCD v0.7 - Point Cloud Data file format
VERSION 0.7
FIELDS x y z intensity
SIZE 4 4 4 4
TYPE F F F F
COUNT 1 1 1 1
WIDTH 1430
HEIGHT 1
VIEWPOINT 0 0 0 1 0 0 0
POINTS 1430
DATA ascii
-0.25851101 -11.237363 -2.1757133 0
0.24903424 -11.281785 -2.1843302 0
0.7591477 -11.29028 -2.1903784 0
1.2536188 -11.287038 -2.1982832 0
1.7431239 -11.248823 -2.2034624 0
2.2531192 -11.183364 -2.2083471 0
2.7597106 -11.101882 -2.2144749 0
3.1072042 -11.029759 -2.218091 0
5.8569641 -11.407847 -2.2527187 0
6.2667089 -11.208562 -2.2559876 0
6.581027 -11.03409 -2.2569053 0
8.8960009 -11.401387 -2.2828705 0
9.2136793 -11.150749 -2.2834883 0
12.228586 -11.260209 -2.3296294 0
15.112104 -11.232884 -2.3061161 0
16.800753 -11.276058 -2.121649 0
-2.1496692 -10.66128 -2.1047759 0
-1.7696766 -10.924358 -2.1419966 0
3.3497505 -10.969005 -2.2200627 0
3.7465036 -10.867323 -2.22524 0
4.2520289 -10.698231 -2.2285984 0
4.6399035 -10.558353 -2.2324653 0
6.836257 -10.915658 -2.2626357 0
7.2630692 -10.659681 -2.2661321 0
9.4516354 -10.97794 -2.2867589 0
9.7418318 -10.730371 -2.2880311 0
10.019532 -10.508672 -2.2920778 0
12.472349 -10.992666 -2.3297577 0
12.689561 -10.736646 -2.3294792 0
15.061382 -10.72894 -2.2646573 0
16.731104 -10.745906 -2.0849547 0
-2.3680937 -10.25894 -2.0372677 0
-1.6836284 -10.037484 -2.153209 0
-1.2523935 -10.108604 -2.1550903 0
-0.75223225 -10.205838 -2.1651645 0
-0.26127046 -10.267608 -2.1731448 0
0.25010902 -10.295282 -2.1789665 0
0.74507725 -10.298956 -2.1847916 0
1.2422099 -10.282731 -2.191545 0
1.7551168 -10.236252 -2.1975224 0
2.2500246 -10.167232 -2.2033648 0
2.7379718 -10.053704 -2.2047992 0
3.0428936 -10.011197 -2.2138436 0
4.8886042 -10.456758 -2.2344279 0
5.246757 -10.299728 -2.2377062 0
5.6904926 -10.099599 -2.2441046 0
7.7439761 -10.334948 -2.2688377 0
8.1132059 -10.09004 -2.2745309 0
10.271077 -10.280093 -2.2941782 0
10.544317 -10.042233 -2.2986479 0
12.953835 -10.452443 -2.3325412 0
13.274548 -10.245988 -2.3500516 0
15.02345 -10.255071 -2.2275624 0
16.702452 -10.229071 -2.0535362 0
-2.2586145 -9.7974281 -2.1271677 0
-1.929581 -9.9772167 -2.149807 0
3.2922456 -9.9373035 -2.2150595 0
3.7447648 -9.8014631 -2.220237 0
4.2476382 -9.6183138 -2.2249486 0
4.5221314 -9.5095034 -2.2279816 0
5.9423485 -9.958765 -2.2448678 0
6.2506666 -9.7779408 -2.2466807 0
6.6086106 -9.5671816 -2.2508919 0
8.3697853 -9.8697529 -2.273402 0
8.6572838 -9.6200056 -2.2736104 0
10.785653 -9.8021603 -2.3008864 0
11.01791 -9.5534296 -2.3020897 0
13.41776 -9.7408772 -2.3235643 0
15.070275 -9.7481451 -2.197927 0
16.595161 -9.7068586 -2.0156572 0
-2.5367439 -9.2864389 -2.03601 0
-2.2022774 -9.1027737 -2.1374459 0
-1.7614233 -9.1942949 -2.1504321 0
-1.2494515 -9.2921314 -2.1537313 0
-0.74880326 -9.3888874 -2.1636059 0
-0.25588292 -9.4468279 -2.1709101 0
0.24401563 -9.474432 -2.1772084 0
0.74612015 -9.474144 -2.1831896 0
1.2461207 -9.442955 -2.1881123 0
1.7458293 -9.3888474 -2.1938813 0
2.2431021 -9.3069181 -2.1993332 0
2.7391152 -9.2057066 -2.206532 0
3.2301919 -9.0794296 -2.2139947 0
4.7654085 -9.4119978 -2.2323616 0
5.2531157 -9.1811209 -2.2384233 0
5.5560665 -9.0153627 -2.2407334 0
6.8508186 -9.4089575 -2.2530725 0
7.2107949 -9.1701565 -2.2584152 0
8.8964691 -9.4044056 -2.2742121 0
9.1647768 -9.1609249 -2.2765279 0
11.233595 -9.2687616 -2.2992291 0
13.461978 -9.4555788 -2.305263 0
13.766194 -9.2282095 -2.322567 0
14.952999 -9.2153597 -2.1507502 0
15.196241 -9.2207232 -2.1766474 0
17.094088 -9.0583572 -2.0282702 0
-2.6134686 -8.7630196 -2.100143 0
-2.4226255 -8.9714947 -2.1343355 0
-1.6315448 -8.5327282 -2.1540725 0
-1.2490104 -8.6048441 -2.1562111 0
-0.74553019 -8.7021084 -2.1659393 0
-0.24522451 -8.7645922 -2.1743941 0
0.2458809 -8.7874355 -2.1800928 0
0.74966091 -8.7835655 -2.1862609 0
1.2562829 -8.7531433 -2.193049 0
1.7461193 -8.6948986 -2.1994467 0
2.2475927 -8.6003838 -2.2046473 0
2.6279967 -8.5333643 -2.2142842 0
3.4830461 -8.9927807 -2.215318 0
3.7530491 -8.8992805 -2.218967 0
4.2590108 -8.7105122 -2.2276654 0
4.6161413 -8.5505838 -2.2323017 0
5.7949142 -8.8709126 -2.2421787 0
6.1830773 -8.6268597 -2.2459805 0
7.459219 -8.9884396 -2.2610865 0
7.7506008 -8.7699242 -2.2659628 0
8.0426331 -8.5253572 -2.2688463 0
9.4146986 -8.932848 -2.2799311 0
9.6168022 -8.6813717 -2.2760539 0
11.463424 -8.9605951 -2.296875 0
11.64925 -8.7043524 -2.2957182 0
13.986505 -8.9728804 -2.3286443 0
14.107481 -8.7186069 -2.3240795 0
15.279765 -8.9332657 -2.1673245 0
16.954689 -8.7844219 -2.001929 0
-2.6688509 -8.2082338 -2.0951033 0
-2.2507901 -8.3554459 -2.1458471 0
-1.8801293 -8.469121 -2.151062 0
-1.1251419 -8.0255442 -2.1586542 0
-0.75337672 -8.091074 -2.1648145 0
-0.2538746 -8.1413937 -2.1699905 0
0.25331622 -8.1694345 -2.1774964 0
0.74959868 -8.1605425 -2.183234 0
1.2440207 -8.1289539 -2.1909549 0
1.7516232 -8.0639362 -2.1985645 0
2.0394299 -8.0093546 -2.2016876 0
2.8690701 -8.4671974 -2.2170799 0
3.252362 -8.3441515 -2.2212298 0
3.7582345 -8.1520262 -2.2264457 0
4.053298 -8.0247669 -2.229552 0
4.8578339 -8.4254694 -2.234304 0
5.2530408 -8.206665 -2.2388029 0
5.5484509 -8.0223379 -2.2408125 0
6.4401574 -8.4472294 -2.2476084 0
6.7590919 -8.2139406 -2.2511363 0
8.2944641 -8.2667952 -2.267215 0
8.5358734 -8.0190811 -2.2671924 0
9.8885803 -8.3834314 -2.2774923 0
10.105953 -8.1185627 -2.2773089 0
11.91364 -8.3928595 -2.3005698 0
12.095822 -8.1382084 -2.3014641 0
14.364275 -8.27281 -2.3229659 0
14.708626 -8.1450949 -2.0585194 0
15.259461 -8.179347 -2.1199172 0
15.5426 -8.085289 -2.1452661 0
-2.7236173 -7.6511369 -2.0968094 0
-2.2479703 -7.7249079 -2.143219 0
-1.7471383 -7.8834758 -2.1511068 0
-1.2581917 -7.7908888 -2.1072605 0
-0.75229353 -7.5836625 -2.0436819 0
-0.2447267 -7.6349816 -2.0485084 0
0.25492248 -7.672915 -2.0588293 0
0.7540347 -7.6623855 -2.0648329 0
1.2549028 -7.6204948 -2.0712337 0
1.7523276 -7.542644 -2.0767417 0
2.2934 -7.9620199 -2.2075133 0
2.7507432 -7.8322549 -2.2117641 0
3.2490685 -7.6587315 -2.2166741 0
3.5719464 -7.5280175 -2.2198045 0
4.3049369 -7.9065752 -2.2328179 0
4.7591372 -7.6588645 -2.2366021 0
5.7923474 -7.8439465 -2.2403009 0
6.1107373 -7.5921402 -2.2389827 0
7.2532458 -7.7788305 -2.2508717 0
7.5291457 -7.5173931 -2.2512679 0
8.7831488 -7.7527871 -2.268168 0
9.0256042 -7.5097437 -2.2729168 0
10.348134 -7.801106 -2.276701 0
10.551424 -7.5504313 -2.2793059 0
12.344029 -7.7592421 -2.301801 0
14.454056 -7.7667618 -2.2993872 0
15.677597 -7.6044416 -2.1335666 0
-2.7908828 -7.1941514 -2.0610633 0
-2.2521906 -7.2069721 -2.0247357 0
-1.7560925 -7.3413129 -2.0241201 0
-1.3258048 -7.4597068 -2.0315442 0
2.2458227 -7.4378037 -2.0837383 0
2.7428303 -7.2897477 -2.0889618 0
3.2423759 -7.109282 -2.0957348 0
3.7999055 -7.3943353 -2.2158229 0
4.249898 -7.2067046 -2.2293258 0
4.5383482 -7.0334105 -2.229985 0
5.2563834 -7.324759 -2.2362816 0
5.6060014 -7.067255 -2.2371862 0
6.3603721 -7.3713455 -2.2367632 0
6.6258025 -7.1253018 -2.2353384 0
7.7763472 -7.2772698 -2.2538939 0
8.0186539 -7.0285501 -2.2562578 0
9.1948748 -7.2719965 -2.2695584 0
10.79551 -7.2525234 -2.2849321 0
12.708023 -7.2884269 -2.3128235 0
14.404516 -7.2567768 -2.2601016 0
15.720416 -7.3268771 -2.1236954 0
-3.010885 -6.8958731 -2.0088608 0
-2.8743103 -6.9397697 -2.0138733 0
3.7611237 -6.8727517 -2.1013877 0
4.2038312 -6.6185074 -2.1029019 0
4.7966433 -6.8585181 -2.2300363 0
5.1367898 -6.6008329 -2.2283924 0
5.8552446 -6.8665848 -2.2381232 0
6.1266232 -6.6248116 -2.2379386 0
6.8778534 -6.8895674 -2.2365046 0
7.119267 -6.6389356 -2.2363884 0
8.2484665 -6.7466803 -2.2551763 0
9.3986225 -6.9008427 -2.257175 0
9.6095695 -6.652236 -2.2625368 0
10.988128 -6.9917669 -2.2879884 0
11.138736 -6.733161 -2.2866979 0
12.883963 -6.769753 -2.2976525 0
13.048925 -6.5238576 -2.3030281 0
14.318851 -6.7504883 -2.2181101 0
15.703211 -6.7050757 -2.090651 0
4.4495163 -6.4651275 -2.1046679 0
4.7580328 -6.2461166 -2.106199 0
5.3175201 -6.3226905 -2.2037923 0
5.6792421 -6.1574759 -2.2318728 0
6.3773417 -6.3800411 -2.2372935 0
6.6122146 -6.1245255 -2.2352777 0
7.3756485 -6.342864 -2.2349207 0
7.5865827 -6.0887938 -2.234776 0
8.4750233 -6.4645076 -2.2554259 0
8.6618786 -6.2109923 -2.2555728 0
9.8539696 -6.271729 -2.2613156 0
10.02617 -6.0152502 -2.2633762 0
11.390009 -6.294713 -2.2862833 0
11.5295 -6.0490289 -2.2872937 0
13.213634 -6.2503495 -2.3076689 0
14.285651 -6.2523689 -2.1848938 0
15.666658 -6.2385769 -2.0646832 0
5.2742982 -5.8042603 -2.1036174 0
5.7729263 -5.7801585 -2.1819451 0
6.1647816 -5.6711688 -2.231883 0
6.8578715 -5.8370175 -2.233552 0
7.059423 -5.5870037 -2.2326972 0
7.8285885 -5.778718 -2.2356138 0
8.0342875 -5.5357175 -2.2414124 0
8.9342175 -5.8747444 -2.2626336 0
9.0399179 -5.611083 -2.2513716 0
10.221262 -5.7504663 -2.2705319 0
11.714328 -5.7582326 -2.2932971 0
13.364527 -5.7478719 -2.2966852 0
14.310231 -5.7653937 -2.161581 0
15.696501 -5.7477551 -2.0465927 0
5.8006682 -5.2831316 -2.1045432 0
6.3293309 -5.3113999 -2.2042837 0
6.6013699 -5.1418819 -2.2293477 0
7.305243 -5.2832904 -2.2361808 0
7.5220962 -5.0410271 -2.2456801 0
8.2531986 -5.2641454 -2.2492404 0
9.2882271 -5.2587008 -2.2587986 0
10.433119 -5.3713174 -2.2716768 0
10.555249 -5.1265135 -2.2716086 0
11.935337 -5.3709555 -2.2993622 0
12.04982 -5.1105828 -2.2994492 0
13.479363 -5.4570355 -2.2956235 0
13.611702 -5.1927166 -2.2998996 0
14.362722 -5.2520719 -2.1426082 0
15.642909 -5.2633066 -2.0206547 0
6.2457833 -4.751637 -2.1050768 0
6.8587961 -4.8149428 -2.2328734 0
7.0488591 -4.5522885 -2.2355065 0
7.7285781 -4.7574019 -2.2511933 0
8.4611626 -4.9452095 -2.2514901 0
8.5967426 -4.6915488 -2.2500887 0
9.4701195 -4.9429402 -2.260416 0
9.595643 -4.6917906 -2.260288 0
10.737456 -4.7490988 -2.2730598 0
12.212202 -4.7590098 -2.3027353 0
13.786563 -4.7510972 -2.3020895 0
14.47528 -4.8172183 -2.1373508 0
14.506478 -4.5539145 -2.1300907 0
15.575273 -4.9983878 -2.002557 0
6.471118 -4.4489799 -2.1059182 0
6.6433663 -4.198267 -2.1077936 0
7.2519274 -4.2481256 -2.2395372 0
7.9428997 -4.37781 -2.2493362 0
8.0726595 -4.1279898 -2.2487299 0
8.7930336 -4.2476416 -2.2436616 0
9.7981853 -4.2568364 -2.2607279 0
10.932688 -4.2613974 -2.2716253 0
11.003952 -4.0157385 -2.2675741 0
12.296193 -4.2554526 -2.2859626 0
13.775955 -4.2507682 -2.275871 0
14.544609 -4.2938681 -2.1246164 0
6.8881531 -3.8053334 -2.1106076 0
7.2981148 -3.7772133 -2.1943436 0
7.5814152 -3.6424174 -2.2409747 0
8.2488327 -3.7469506 -2.2472253 0
8.9682922 -3.9439781 -2.2507703 0
9.0860405 -3.6816852 -2.2524028 0
9.9549265 -3.908334 -2.2630296 0
10.051604 -3.645699 -2.2625782 0
11.120799 -3.7475345 -2.2719498 0
12.419329 -3.8701553 -2.2852969 0
12.55706 -3.6152151 -2.2956288 0
13.683043 -3.7430308 -2.2392883 0
14.208117 -3.7436459 -2.0583704 0
14.627393 -3.8524888 -2.1191053 0
7.1910772 -3.2612138 -2.1179698 0
7.7547393 -3.2490425 -2.2403378 0
8.4396544 -3.2484231 -2.2430489 0
9.2615204 -3.2438638 -2.2546978 0
10.20205 -3.2425232 -2.2654059 0
11.311641 -3.2561052 -2.2788594 0
12.675068 -3.2493005 -2.2988887 0
13.616865 -3.2514141 -2.2097931 0
14.209496 -3.3494968 -2.0450094 0
14.650806 -3.1665289 -2.099844 0
7.4115825 -2.7563081 -2.1210272 0
7.9338107 -2.8290646 -2.2442718 0
8.0268393 -2.5705516 -2.2455139 0
8.6242189 -2.7498143 -2.245239 0
9.4260559 -2.7546239 -2.2563388 0
10.351147 -2.7493331 -2.2664592 0
11.449619 -2.78337 -2.2811952 0
11.501361 -2.5313187 -2.2797859 0
12.75145 -2.7497337 -2.2917507 0
13.495843 -2.5011375 -2.1663043 0
13.533252 -2.7675438 -2.1802981 0
14.580438 -2.7510629 -2.078639 0
7.576179 -2.256711 -2.1203578 0
8.1156702 -2.2448673 -2.2437022 0
8.7944469 -2.2584014 -2.2521312 0
9.5726337 -2.2583146 -2.2598319 0
10.466199 -2.3357203 -2.2692614 0
10.517464 -2.0740705 -2.2683997 0
11.567781 -2.248188 -2.2814651 0
12.816805 -2.2463937 -2.2860646 0
13.473083 -2.2410097 -2.1557238 0
14.461293 -2.0443645 -2.0458446 0
14.530879 -2.2487905 -2.0598176 0
7.6921453 -1.757037 -2.1163383 0
8.1963072 -1.7416811 -2.232655 0
8.8833885 -1.7610977 -2.2462721 0
9.6653032 -1.7495308 -2.256815 0
10.554876 -1.7426542 -2.2638535 0
11.677435 -1.7500566 -2.2860093 0
12.899437 -1.7529407 -2.2870624 0
13.453334 -1.7461373 -2.1411705 0
14.587541 -1.7387058 -2.0579906 0
7.7703662 -1.2497609 -2.1109302 0
8.2740564 -1.2429938 -2.2293639 0
8.9360962 -1.259343 -2.2383153 0
9.7414589 -1.2534775 -2.2566528 0
10.596207 -1.2515424 -2.257921 0
11.660636 -1.2501796 -2.2704089 0
12.930998 -1.2499839 -2.2823782 0
13.443431 -1.2384859 -2.1307416 0
14.598298 -1.2352824 -2.0523224 0
7.8162222 -0.75429118 -2.1061265 0
8.3279533 -0.74084854 -2.2276962 0
8.9806929 -0.75913215 -2.2354121 0
9.7708817 -0.75382155 -2.2516277 0
10.632129 -0.75511611 -2.2555926 0
11.637037 -0.74305445 -2.2574339 0
12.962379 -0.74601817 -2.2810423 0
13.417447 -0.73909265 -2.1208344 0
14.615432 -0.73527259 -2.0499945 0
7.8379016 -0.25675273 -2.103338 0
8.3316383 -0.25014389 -2.220885 0
8.9925451 -0.40945196 -2.2324553 0
9.0114355 -0.16193083 -2.2352705 0
9.7751293 -0.25355765 -2.2466424 0
10.667949 -0.26301065 -2.2581983 0
11.674306 -0.23671225 -2.2605414 0
12.94468 -0.24746424 -2.2745774 0
13.38697 -0.23699535 -2.1131165 0
14.449295 -0.081333905 -2.0239944 0
14.548421 -0.33063611 -2.0384486 0
7.8131752 0.25252339 -2.0966392 0
8.3352823 0.25281852 -2.22191 0
8.9983225 0.4539564 -2.2343907 0
9.0155134 0.20231298 -2.2365842 0
9.764967 0.24520327 -2.2442706 0
10.656547 0.24939397 -2.255738 0
11.690705 0.25113991 -2.2637579 0
12.87727 0.25413272 -2.2626936 0
13.330935 0.25923285 -2.1043041 0
14.437918 0.25570962 -2.0227671 0
7.7579827 0.75510621 -2.0905361 0
8.2907982 0.7541582 -2.2181067 0
8.9539032 0.74086976 -2.2283697 0
9.7170553 0.75660461 -2.2392952 0
10.58588 0.75515473 -2.2457783 0
11.654828 0.73695332 -2.260814 0
12.77648 0.74690831 -2.2483435 0
13.282294 0.75028831 -2.0995591 0
14.362901 0.74505579 -2.0146191 0
7.6656785 1.253314 -2.0831923 0
8.2123432 1.2481618 -2.213213 0
8.8656101 1.2488807 -2.2205882 0
9.6326189 1.2614832 -2.2319911 0
10.485515 1.4045725 -2.2384605 0
10.524027 1.1608034 -2.2403731 0
11.55824 1.2371705 -2.2503469 0
12.695354 1.2531765 -2.2410765 0
13.167334 1.2577405 -2.0875096 0
14.247768 1.243119 -2.0033503 0
7.4953842 1.9652655 -2.0777838 0
7.5553823 1.7198143 -2.0780582 0
8.1024895 1.7506888 -2.208607 0
8.7623434 1.7475123 -2.2160044 0
9.473834 1.9195251 -2.220567 0
9.5414467 1.6721122 -2.2253797 0
10.421371 1.7413245 -2.2358303 0
11.446817 1.7797407 -2.2425635 0
11.504314 1.5165713 -2.2462034 0
12.591113 1.7383229 -2.2161911 0
13.137714 1.7881695 -2.0924675 0
14.170616 1.8830973 -2.0023112 0
7.4030776 2.2360961 -2.0740423 0
7.930912 2.2995462 -2.1999619 0
8.0175352 2.043746 -2.204103 0
8.6141129 2.2526615 -2.2083116 0
9.3709373 2.2465737 -2.2138891 0
10.280543 2.2437015 -2.2266302 0
11.34374 2.2547324 -2.2389524 0
12.45203 2.2699986 -2.2234492 0
12.506589 2.024827 -2.2254753 0
13.072484 2.2553561 -2.0935624 0
14.137651 2.0132244 -2.000196 0
7.2156467 2.7531068 -2.0713148 0
7.7625055 2.7543056 -2.1944895 0
8.4324808 2.799922 -2.2035453 0
8.5193014 2.5520346 -2.2053599 0
9.2114334 2.7427444 -2.2080698 0
10.105391 2.7533972 -2.21629 0
11.182997 2.7469296 -2.2292087 0
12.378124 2.7549891 -2.2276654 0
12.880509 2.740958 -2.0782678 0
6.9175086 3.3376362 -2.0595834 0
7.2488937 3.2527792 -2.1232965 0
7.5817375 3.1616337 -2.1883519 0
8.2383204 3.2549293 -2.196893 0
8.9365931 3.3830934 -2.1950221 0
9.0587873 3.1307266 -2.2017312 0
9.9113455 3.284518 -2.2093294 0
10.010995 3.0436268 -2.2138436 0
10.907268 3.3331702 -2.2076948 0
11.038753 3.0757687 -2.2181163 0
12.246385 3.2492406 -2.2257421 0
12.715997 3.2406573 -2.0709033 0
6.6730986 3.7431586 -2.0519831 0
7.2397885 3.7400446 -2.1710191 0
7.9166999 3.8597078 -2.1840708 0
8.058691 3.6084366 -2.1895542 0
8.7505684 3.7553768 -2.1876137 0
9.6763268 3.7482615 -2.1957324 0
10.709254 3.749294 -2.1963894 0
12.160716 3.7658181 -2.2051444 0
12.573377 3.7078593 -2.0686893 0
6.3186307 4.2588305 -2.0435579 0
6.8664532 4.3037825 -2.1595166 0
7.0438504 4.0658197 -2.1663895 0
7.6730528 4.2516651 -2.1755819 0
8.4028912 4.3680024 -2.1753991 0
8.5604496 4.1195698 -2.1822252 0
9.3739309 4.2961102 -2.1817422 0
9.5187683 4.0438619 -2.1880627 0
10.481322 4.4525657 -2.2042255 0
10.56579 4.2007427 -2.2009184 0
11.896182 4.3073354 -2.222523 0
12.312859 4.222137 -2.0941646 0
5.8318977 4.8173971 -2.0283623 0
6.2648168 4.7527628 -2.1005037 0
6.6282687 4.6469202 -2.1563511 0
7.3175883 4.7642899 -2.165509 0
7.85952 4.8507071 -2.1613786 0
8.1607876 4.7205505 -2.1657288 0
8.9883614 4.9717007 -2.1730928 0
9.1335621 4.7288785 -2.1761601 0
10.310963 4.7615094 -2.1985238 0
11.482945 4.9984717 -2.1997752 0
11.628725 4.7451425 -2.2062743 0
12.153337 4.7591062 -2.0597365 0
5.3189182 5.3444805 -2.0218937 0
5.7395382 5.2369456 -2.0768557 0
6.1720161 5.1748629 -2.1456099 0
6.8442936 5.2839475 -2.1441269 0
7.0735068 5.0514793 -2.1552017 0
7.7780905 5.250679 -2.1558449 0
8.8017035 5.2510042 -2.1685841 0
9.8999414 5.3758659 -2.1804805 0
10.065767 5.1260252 -2.1863849 0
11.324404 5.2673349 -2.1939404 0
11.947488 5.3334484 -2.0647264 0
12.028966 5.0806103 -2.0605545 0
4.8139601 5.720408 -2.0046341 0
5.2761183 5.7914572 -2.0908473 0
5.6859126 5.6555414 -2.1362653 0
6.3389106 5.8697872 -2.1422184 0
6.6178899 5.6161747 -2.1522176 0
7.3387012 5.8065825 -2.1496325 0
7.5531564 5.5555811 -2.1535914 0
8.3554058 5.8435235 -2.1571727 0
8.5622988 5.5893483 -2.1632323 0
9.4615936 5.960186 -2.1642828 0
9.660078 5.7203083 -2.1730855 0
10.961438 5.9449997 -2.1902821 0
11.076554 5.7064385 -2.1886618 0
11.837647 5.7485881 -2.0767717 0
4.4800239 6.4941492 -2.1010931 0
4.7485042 6.3211818 -2.1060107 0
5.1252966 6.0852547 -2.1190379 0
5.7919049 6.3174233 -2.1252725 0
6.0860543 6.0729036 -2.1316948 0
6.7807288 6.3334646 -2.1313047 0
7.0871301 6.0871563 -2.1458082 0
7.8841186 6.3776751 -2.1453464 0
8.1031246 6.1287413 -2.1493912 0
8.9975538 6.4823394 -2.1462195 0
9.2152328 6.2335796 -2.1535125 0
10.473545 6.4852529 -2.1636562 0
10.721742 6.230876 -2.1783295 0
11.72625 6.2425728 -2.0965345 0
3.7573106 6.8921294 -2.0908339 0
4.2303243 6.6412487 -2.0973752 0
4.8638291 6.9502435 -2.1031883 0
5.2526836 6.7241292 -2.1158047 0
5.5326161 6.5260439 -2.121171 0
6.2612209 6.8069563 -2.1245196 0
6.531847 6.5496736 -2.1244378 0
7.3740616 6.8847394 -2.1342325 0
7.6372871 6.6360793 -2.140451 0
8.4879951 6.9675765 -2.1252306 0
8.7505217 6.7207541 -2.1356542 0
10.200252 6.7371364 -2.1472309 0
11.651925 6.7481813 -2.1251197 0
-1.6240025 7.3395 -2.0013769 0
-1.2492408 7.4361281 -2.0079179 0
-0.9755553 7.4920673 -2.0115416 0
1.9680963 7.4917049 -2.0626152 0
2.2456012 7.4216928 -2.0651295 0
2.7464514 7.2886891 -2.0745523 0
3.2451308 7.113193 -2.0824578 0
3.8610635 7.4063034 -2.0850577 0
4.2569733 7.2832727 -2.0917258 0
4.5995626 7.0766611 -2.0924308 0
5.3433962 7.4121022 -2.098551 0
5.7601137 7.1601171 -2.1108122 0
6.8138728 7.3543048 -2.121011 0
7.122458 7.0990663 -2.1273522 0
7.9332404 7.4509902 -2.1062262 0
8.2495155 7.2111382 -2.1207361 0
9.8178873 7.3209615 -2.151197 0
10.009804 7.0374832 -2.1490698 0
11.418397 7.434072 -2.1504109 0
11.558077 7.1742511 -2.1470456 0
-1.2147479 7.9828162 -2.0012989 0
-0.73313433 7.5338898 -2.0156281 0
-0.25454766 7.6019483 -2.0255647 0
0.25208998 7.6320472 -2.0335782 0
0.7467609 7.6095891 -2.036247 0
1.2566599 7.5916028 -2.0493045 0
1.7194604 7.5373306 -2.058877 0
2.3733268 7.9688215 -2.0611746 0
2.7480717 7.8702936 -2.0667872 0
3.2532406 7.7136493 -2.075644 0
3.6525249 7.5582142 -2.0810928 0
4.338439 7.9192481 -2.0737026 0
4.7371249 7.7147918 -2.079258 0
5.0871692 7.5561843 -2.0919323 0
5.9506745 7.9804339 -2.1057296 0
6.2517052 7.7703037 -2.1099668 0
6.5552206 7.5307035 -2.1119671 0
7.4563794 7.9716892 -2.1123829 0
7.7107124 7.7472587 -2.1155555 0
9.2627792 7.7696543 -2.1235332 0
9.5280151 7.5287724 -2.1327469 0
10.959836 7.9371009 -2.1356432 0
11.159942 7.6925635 -2.1392934 0
-1.0538398 8.010767 -2.0025325 0
-0.74359667 8.0604553 -2.0065489 0
-0.24618895 8.1316938 -2.0167093 0
0.2586042 8.1606503 -2.0240152 0
0.75137949 8.1461115 -2.0279677 0
1.2539847 8.132803 -2.0400305 0
1.7539717 8.0788841 -2.0495112 0
2.1203003 8.0217876 -2.0568199 0
2.8674037 8.4618015 -2.0516434 0
3.253557 8.3457603 -2.0571892 0
3.7453887 8.1637573 -2.0628245 0
4.0884633 8.0382948 -2.0709636 0
4.966764 8.4869909 -2.0799484 0
5.252944 8.3456602 -2.0860932 0
5.7041349 8.1140966 -2.0981891 0
6.8698106 8.3949738 -2.0992808 0
7.2136769 8.1575575 -2.107549 0
8.7634535 8.2751474 -2.1170368 0
9.0187702 8.0255957 -2.1202443 0
10.468417 8.4474936 -2.12292 0
10.726596 8.2034883 -2.1313524 0
11.698608 8.3254366 -2.0112367 0
-0.17967157 8.7197514 -2.0025787 0
0.25264284 8.7310534 -2.0057137 0
0.74579275 8.7308083 -2.0121622 0
1.2532747 8.7075987 -2.0202024 0
1.7581578 8.6693077 -2.031358 0
2.2508707 8.6009378 -2.0417058 0
2.6121385 8.5247078 -2.0473545 0
3.7570171 8.9325171 -2.0497491 0
4.2500072 8.7488813 -2.0574946 0
4.7216845 8.5796347 -2.0715137 0
5.9770594 8.9868832 -2.0885952 0
6.231462 8.7738314 -2.0827436 0
6.6189928 8.5664196 -2.0949872 0
7.923275 8.9509134 -2.0993371 0
8.2637005 8.7194967 -2.1100092 0
8.5218439 8.5096684 -2.1150346 0
9.8995314 8.9463577 -2.1057332 0
10.217974 8.7005682 -2.1181226 0
11.734632 8.7419195 -2.0498111 0
0.91883683 9.4202585 -2.0016353 0
1.2459506 9.4144487 -2.0085309 0
1.7375906 9.3751755 -2.0166941 0
2.2504423 9.2971182 -2.0232575 0
2.7632847 9.205925 -2.0330338 0
3.253166 9.0757704 -2.0392959 0
3.5093815 9.0014706 -2.0433562 0
4.8885522 9.4517202 -2.0591016 0
5.2536464 9.3034248 -2.0676963 0
5.7256813 9.0898266 -2.0790002 0
7.3062472 9.3904963 -2.0895665 0
7.6564384 9.1243315 -2.0918815 0
9.4648342 9.4684391 -2.1128039 0
9.6537485 9.2229042 -2.1071484 0
11.72806 9.2569733 -2.0931633 0
2.8435779 9.9579573 -2.0037236 0
3.2544897 9.887022 -2.014132 0
3.7582717 9.8005219 -2.0311236 0
4.2520995 9.6851826 -2.0469036 0
4.6427441 9.5515633 -2.0550554 0
6.3742442 9.9150543 -2.069973 0
6.7523642 9.6895132 -2.0741842 0
7.0614395 9.5211802 -2.0816944 0
8.8594732 9.8847198 -2.0948312 0
9.2120867 9.6257219 -2.1027396 0
11.330544 9.8225327 -2.1007905 0
11.566766 9.574419 -2.103518 0
1.8272542 10.183542 -2.0018291 0
2.2549391 10.121731 -2.0065472 0
2.5995204 10.037682 -2.0061657 0
4.9613404 10.47885 -2.0358512 0
5.2407985 10.365815 -2.0397868 0
5.7616196 10.191296 -2.0559943 0
6.1372705 10.039223 -2.066314 0
8.2856588 10.340987 -2.0912638 0
8.5976725 10.079086 -2.0906796 0
10.796556 10.343166 -2.0946109 0
11.083571 10.101743 -2.1008642 0
3.2908211 10.940973 -2.0061731 0
3.7457032 10.846267 -2.0150135 0
4.2552853 10.700456 -2.0221908 0
4.7259989 10.569459 -2.0331306 0
6.9700136 10.976691 -2.0517945 0
7.2533751 10.786067 -2.0512521 0
7.7543135 10.59016 -2.071363 0
8.0312996 10.515633 -2.0880873 0
9.9927683 10.996469 -2.0814729 0
10.30581 10.828599 -2.0943167 0
10.558187 10.533375 -2.0892668 0
12.23271 10.940271 -2.0091381 0
5.9741602 11.491094 -2.0436597 0
6.249886 11.376896 -2.0484252 0
6.711278 11.134337 -2.0516016 0
9.4644194 11.445739 -2.0805452 0
9.7065926 11.161077 -2.0721803 0
12.277878 11.293962 -2.0424607 0
4.3585281 11.95402 -2.0076799 0
4.7636886 11.852743 -2.0157425 0
5.2579751 11.712528 -2.0259469 0
5.713892 11.554353 -2.0340464 0
8.8474388 11.876439 -2.0746534 0
9.2110863 11.640285 -2.0794992 0
11.830942 11.859852 -2.051034 0
12.111871 11.591779 -2.0526047 0
3.9171264 12.066605 -2.0017352 0
4.109024 12.019316 -2.0042386 0
7.8186393 12.433351 -2.0574732 0
8.2470837 12.220387 -2.0653286 0
8.600935 12.045979 -2.0734565 0
11.261432 12.316644 -2.043328 0
11.570029 12.076972 -2.0476487 0
6.434989 12.961862 -2.027056 0
6.7545872 12.847278 -2.0332432 0
7.2539763 12.676076 -2.0459373 0
7.5639853 12.530753 -2.050298 0
10.437085 12.969399 -2.0381429 0
10.740131 12.733384 -2.0395677 0
11.015649 12.513506 -2.0410676 0
4.8647227 13.453307 -2.003814 0
5.2419395 13.340324 -2.0077574 0
5.7576537 13.185078 -2.0153656 0
6.1898379 13.052996 -2.0235767 0
9.8412552 13.382301 -2.0337558 0
10.204628 13.134002 -2.0363553 0
13.640297 13.42348 -2.0063889 0
8.9438953 13.970163 -2.0308309 0
9.2451115 13.77557 -2.0312369 0
9.5800838 13.549009 -2.0315619 0
13.296801 13.786314 -2.0081589 0
13.554888 13.551065 -2.009455 0
7.8357825 14.452034 -2.0126548 0
8.2544088 14.272042 -2.0185549 0
8.7049999 14.074298 -2.0260777 0
12.797091 14.244324 -2.007597 0
13.060698 14.047016 -2.0109186 0
7.2609696 14.662162 -2.0031333 0
7.5936909 14.529995 -2.0071068 0
57.99498 -63.761063 -1.5036294 0
58.348907 -63.746723 -1.5076085 0
58.657242 -63.680794 -1.510401 0
4.8342223 -49.534496 -1.7363198 0
5.0205941 -49.901669 -1.7497211 0
4.2593641 -46.657593 -1.6344131 0
4.3429375 -45.975353 -1.6109607 0
2.8056774 -37.748085 -1.9812299 0
2.5773702 -37.035686 -1.9431295 0
1.9676673 -32.608059 -1.7095015 0
1.8577334 -32.482475 -1.7025934 0
20.069426 -32.432449 -1.9963026 0
1.7222728 -31.781895 -1.6655394 0
1.4975139 -31.265406 -1.6379061 0
1.5925193 -31.264713 -1.6381155 0
20.77791 -31.146053 -1.9596676 0
21.120796 -31.030819 -1.9646919 0
0.8182373 -29.564259 -1.5474695 0
19.346287 -29.79557 -1.859287 0
19.527107 -29.770628 -1.8633693 0
20.699749 -29.810118 -1.8994813 0
21.163122 -29.780199 -1.9121464 0
-0.64275742 -29.121101 -1.5240229 0
0.95136005 -29.368473 -1.5374209 0
1.0442039 -29.409286 -1.5397238 0
20.517767 -29.062504 -1.861904 0
-0.2798537 -28.925119 -1.5134511 0
1.0104532 -28.021576 -1.9573667 0
20.040846 -28.019514 -1.802869 0
0.92220896 -27.980701 -1.9542974 0
20.180763 -27.843168 -1.7996591 0
-1.9154379 -26.266199 -1.8382225 0
19.656048 -26.167017 -1.7126417 0
19.621677 -25.78488 -1.6955804 0
-1.7672536 -25.336679 -1.7726516 0
19.493874 -25.392412 -1.6751692 0
19.55702 -25.227612 -1.6703544 0
0.3523657 -24.593672 -1.7165673 0
19.409212 -24.719769 -1.6446052 0
19.694954 -24.845453 -1.6590499 0
0.21556935 -24.192789 -1.6884553 0
19.446701 -24.374298 -1.6316257 0
19.538675 -24.177366 -1.6266016 0
-0.028323039 -23.774187 -1.659088 0
0.19174163 -23.793381 -1.660483 0
19.446341 -23.76347 -1.6067139 0
19.804197 -23.893076 -1.62388 0
-0.13537453 -23.275002 -1.6242098 0
19.173141 -23.279709 -1.5780337 0
-0.21953188 -22.789291 -1.8566824 0
18.967354 -22.593649 -1.543492 0
19.117496 -22.775141 -1.5558434 0
20.464514 -22.613117 -1.5958279 0
20.622147 -22.881308 -1.6118078 0
18.85183 -22.03706 -1.517324 0
19.010069 -22.364096 -1.5357463 0
18.934511 -21.987154 -1.5181614 0
19.028624 -21.829737 -1.5151609 0
18.877378 -21.243971 -1.9839299 0
20.760996 -21.041704 -1.5466322 0
-0.5429939 -20.694126 -1.8069129 0
-0.47788367 -20.691748 -1.8065643 0
18.808039 -20.707428 -1.9527628 0
20.827 -20.976377 -1.5466322 0
-0.62299657 -20.275249 -1.7704818 0
18.645218 -20.209955 -1.9194192 0
19.179363 -20.083523 -1.9385324 0
-0.70181805 -19.78426 -1.7277753 0
18.448214 -19.687614 -1.8832853 0
18.530359 -19.591143 -1.8823086 0
18.36557 -18.799276 -1.8344278 0
18.689047 -18.800728 -1.8503602 0
18.485626 -18.363813 -1.8186908 0
18.624111 -18.328701 -1.8238528 0
-1.0518969 -17.619808 -1.8501539 0
18.338745 -17.82439 -1.7849286 0
18.571928 -17.621895 -1.7868819 0
-1.0858192 -17.278957 -1.8146139 0
18.131153 -17.367218 -1.7522826 0
-1.1147053 -16.894411 -1.7744752 0
17.925835 -16.677671 -1.7087545 0
18.183983 -16.9862 -1.7366571 0
-1.2768159 -16.230297 -1.8358178 0
17.73167 -16.107576 -1.6717837 0
18.030071 -16.381775 -1.7001047 0
-1.630178 -15.674417 -1.9291104 0
-1.448886 -15.816749 -1.7340858 0
17.656506 -15.690997 -1.6483921 0
-1.6323904 -15.078641 -1.7226086 0
-1.499377 -15.426338 -1.6239542 0
17.61256 -15.312283 -1.6286044 0
-1.6967217 -14.621211 -1.542004 0
17.367197 -14.678999 -1.7861418 0
-1.7752228 -14.361931 -1.7280475 0
17.3055 -14.172119 -1.7568029 0
18.306177 -14.070961 -1.6111885 0
-1.8750279 -13.693626 -1.7394871 0
17.356674 -13.803621 -1.7893822 0
17.656548 -13.82827 -1.6965264 0
18.1485 -13.856539 -1.7929493 0
-2.0353687 -13.127874 -1.6252495 0
-1.9176158 -13.306076 -1.7932986 0
17.263714 -13.011191 -1.887096 0
17.716944 -13.169377 -1.605135 0
-2.1297326 -12.832599 -1.7751049 0
-1.9702871 -12.751844 -1.9191685 0
17.210936 -12.680285 -1.8661207 0
17.896156 -12.933208 -1.5406414 0
-2.1944423 -12.20553 -1.7835945 0
-1.990564 -12.485462 -1.9948523 0
17.26955 -12.313989 -1.8514495 0
-4.6664605 -11.688918 -1.5394535 0
-4.2948532 -11.697371 -1.5240979 0
-2.5481858 -11.828325 -1.6937367 0
-2.3786178 -11.852363 -1.8088422 0
16.891537 -11.69335 -1.793177 0
17.343107 -11.61613 -1.8220199 0
-4.3172874 -11.483638 -1.5004553 0
-2.364666 -11.190625 -1.8941572 0
16.933559 -11.304035 -1.7771056 0
17.181244 -11.27733 -1.7938395 0
-2.6411421 -10.67727 -1.7154831 0
-2.4347723 -10.808558 -1.8020141 0
16.855808 -10.691893 -1.7421685 0
-2.7135065 -10.208838 -1.7839271 0
-2.4605691 -10.014176 -1.9950989 0
16.709593 -10.203142 -1.7086884 0
-5.6469078 -9.9350758 -1.7006481 0
-5.4450684 -9.8187771 -1.6111091 0
-3.1762772 -9.839076 -1.8146234 0
-2.7541468 -9.8097172 -1.8538136 0
-2.485347 -9.9797335 -1.9897563 0
16.598486 -9.783268 -1.6814667 0
-5.1748123 -9.3782568 -1.6888666 0
-3.2193913 -9.3497343 -1.7351794 0
-2.8061762 -9.1574268 -1.7567106 0
16.425224 -9.2134476 -1.8267541 0
16.624668 -9.2501459 -1.7160616 0
17.146654 -9.1323862 -1.6954406 0
-3.5748603 -8.9009924 -1.8551723 0
-3.2039003 -8.7521009 -1.7873535 0
-2.85063 -8.780838 -1.8971654 0
16.463917 -8.9870863 -1.9663895 0
16.750198 -8.9164486 -1.9893856 0
17.192337 -8.9539385 -1.6916931 0
-4.5734358 -8.3810892 -1.5045867 0
-3.543514 -8.4187307 -1.7661279 0
-3.1545155 -8.2015295 -1.7888492 0
-2.9051032 -8.2007942 -1.9470911 0
16.195551 -8.1017904 -1.6860986 0
-3.6331425 -7.8063636 -1.8199996 0
-3.2034996 -7.8101473 -1.8509132 0
-2.8912387 -7.5265727 -1.9982749 0
16.229776 -7.7690382 -1.7198044 0
16.549566 -7.5925226 -1.9086897 0
-3.6356764 -7.1290193 -1.7276762 0
-3.2018189 -7.2215447 -1.7886034 0
-2.9433193 -7.4207096 -1.9784371 0
16.274462 -7.2851629 -1.7120473 0
-3.6385748 -6.5770259 -1.8100138 0
-3.2483056 -6.7563853 -1.8728939 0
15.920795 -6.8225141 -1.646135 0
16.131485 -6.6966395 -1.6937798 0
-4.0877833 -6.0319047 -1.8047373 0
-3.7121241 -6.1957297 -1.7695329 0
-3.3508475 -6.2716641 -1.7992443 0
15.993801 -6.022923 -1.7911997 0
16.087172 -6.0005026 -1.7995622 0
-3.6932347 -5.73487 -1.7606279 0
-3.424314 -5.7489133 -1.6327268 0
15.843184 -5.6378531 -1.7624336 0
16.267895 -5.6743612 -1.6318934 0
-3.687263 -5.2786956 -1.7018477 0
15.864778 -5.2332768 -1.7508518 0
16.084309 -5.2558322 -1.7734716 0
-4.0194159 -4.5392094 -1.622943 0
-3.6794024 -4.706131 -1.5961723 0
15.455986 -4.6983223 -1.9776261 0
15.787459 -4.700387 -1.7622721 0
16.009607 -4.8976831 -1.7546148 0
-4.0274482 -4.4638448 -1.609223 0
-3.860146 -4.3513083 -1.551791 0
15.417948 -4.2514138 -1.9296023 0
15.747016 -4.3656206 -1.8070489 0
16.214487 -4.2511044 -1.756775 0
16.711926 -4.3085909 -1.5057025 0
14.225706 -3.5214276 -1.6643023 0
15.399762 -3.8113756 -1.9421098 0
15.761581 -3.730855 -1.6974028 0
14.260759 -3.4127121 -1.6653641 0
15.203467 -3.1042535 -1.7822691 0
15.570826 -3.4695027 -1.9528344 0
15.176072 -2.7601738 -1.7459328 0
14.988152 -2.1244884 -1.6927249 0
15.089942 -2.3484983 -1.8692321 0
14.891301 -1.7849358 -1.7222154 0
15.122983 -1.6632203 -1.6939654 0
-6.6492171 -1.3103709 -1.553512 0
-6.0824571 -1.2602923 -1.5368261 0
14.862621 -1.1374576 -1.6808281 0
15.093962 -1.380248 -1.7544693 0
15.537392 -1.4664614 -1.6352433 0
14.883385 -0.76489764 -1.6987273 0
15.110029 -0.57893801 -1.5842334 0
14.694638 -0.24600567 -1.6752447 0
15.194517 -0.25743872 -1.5921775 0
14.677375 0.26243338 -1.6874813 0
15.277339 0.21593626 -1.6008186 0
14.428475 0.80127734 -1.7120794 0
14.560625 0.64030874 -1.6296495 0
14.397889 1.2884419 -1.6897644 0
14.706343 1.1522216 -1.5454323 0
-5.3491035 1.9182199 -1.5203042 0
14.336275 1.6819168 -1.8041422 0
14.991544 1.7493973 -1.5813066 0
-5.5825343 2.0222735 -1.5890775 0
-5.1099567 2.4169631 -1.5070736 0
13.996104 2.259315 -1.9857217 0
14.148183 2.2652626 -1.9213238 0
14.588964 2.260098 -1.8068 0
15.324818 2.2966731 -1.6236405 0
-5.0881052 2.7688684 -1.5466068 0
-4.9694743 2.9445379 -1.5381258 0
13.943482 2.757024 -1.9909177 0
14.333465 2.7654493 -1.7865601 0
14.990582 2.9815671 -1.6013761 0
15.003779 2.9352183 -1.6017941 0
-5.2263966 3.3346641 -1.6141446 0
-4.9801884 3.0334873 -1.5604219 0
13.854218 3.2576215 -1.9935155 0
14.31337 3.248209 -1.7963053 0
14.963956 3.0728981 -1.6005398 0
-5.9145813 3.9183741 -1.6268461 0
-5.2443533 3.7607658 -1.6845336 0
13.724236 3.7598531 -1.9734663 0
14.161511 3.7176859 -1.7919263 0
14.783808 3.9333911 -1.6028395 0
-6.0708766 4.1654615 -1.6887076 0
-5.700285 4.2881031 -1.7096848 0
-5.219358 4.2961445 -1.7850343 0
13.496073 4.4568033 -1.9907321 0
13.708324 4.2192545 -1.8695928 0
14.304925 4.2052364 -1.5620733 0
14.605253 4.4162798 -1.5986583 0
-6.1527367 4.7339578 -1.6793033 0
-5.9192014 4.7216382 -1.72645 0
-5.2625413 4.7166433 -1.7881428 0
-4.9253736 4.8496294 -1.852222 0
12.963923 4.9353876 -1.8200105 0
13.312449 4.7186589 -1.9783459 0
13.666287 4.7463889 -1.7705178 0
14.486466 4.6524282 -1.5941286 0
14.627992 4.5478268 -1.6049997 0
-6.3133268 5.139874 -1.7039654 0
-5.6226482 5.2615156 -1.7085499 0
-5.2233715 5.1830583 -1.855819 0
-4.7639689 5.2561445 -1.897432 0
-4.4185424 5.4454923 -1.8792216 0
12.937731 5.1808801 -1.9028527 0
13.007485 5.3680153 -1.9708767 0
13.604202 5.2718272 -1.7856296 0
14.877872 5.4316735 -1.6596332 0
15.229131 5.3637333 -1.6919674 0
-6.219739 5.706264 -1.6724885 0
-5.6758547 5.7141452 -1.6626749 0
-5.268486 5.7623677 -1.8811351 0
-4.7278938 5.6515512 -1.961799 0
-4.2617373 5.728116 -1.9082917 0
-3.8241384 5.8822336 -1.8803488 0
4.4524198 5.9663925 -1.9957249 0
4.5583515 5.8970771 -1.9981439 0
12.967829 5.7813931 -1.9887582 0
13.407708 5.8279614 -1.7891811 0
13.585443 5.6979289 -1.7278355 0
14.46725 5.8846927 -1.6364976 0
14.842391 5.6837296 -1.6654869 0
15.348054 5.5669608 -1.7109219 0
-6.1132011 6.1345854 -1.6124172 0
-5.6811976 6.3110938 -1.7171381 0
-5.2848167 6.2183447 -1.8868853 0
-4.7609072 6.2221489 -1.9418778 0
-4.2261205 6.1985831 -1.9616803 0
-3.7450545 6.2799444 -1.9503901 0
-3.2498457 6.2340484 -1.8844699 0
-2.8637099 6.43716 -1.8881366 0
3.7634819 6.3802714 -1.9861733 0
4.211246 6.1260195 -1.9931821 0
12.783638 6.2558484 -1.9935619 0
13.367146 6.2721047 -1.7326577 0
13.589999 6.2035561 -1.5652092 0
-6.0186138 6.8575563 -1.6003416 0
-5.7326465 6.7478228 -1.7287966 0
-5.2546153 6.7252522 -1.8882961 0
-4.8146353 6.7605639 -1.9052559 0
-4.2264652 6.7119184 -1.9659892 0
-3.7609112 6.7723293 -1.9762616 0
-3.2472706 6.7071681 -1.9842795 0
-2.7282658 6.77352 -1.9490489 0
-2.2532594 6.6970792 -1.8939981 0
-1.7571813 6.8689294 -1.9005102 0
-1.3858562 6.9752107 -1.9059455 0
2.3283803 6.9538774 -1.9658971 0
2.7467558 6.817029 -1.9705011 0
3.2441978 6.6192632 -1.9764475 0
3.5049083 6.5055213 -1.9808762 0
12.447328 6.8933573 -1.9929587 0
12.578945 6.6433692 -1.9925412 0
13.3377 6.8900933 -1.7492137 0
13.687757 6.7664099 -1.8688905 0
-6.0329452 7.4583726 -1.6829982 0
-5.7200546 7.1808228 -1.727335 0
-5.1843028 7.2162523 -1.8787315 0
-4.6971297 7.1762781 -1.9313717 0
-4.2616334 7.3399882 -1.9487802 0
-3.6540809 7.0712328 -1.9726679 0
-3.2556093 7.2684274 -1.9741246 0
-2.7739899 7.314014 -1.9816949 0
-2.2417183 7.1389804 -1.9925013 0
-1.8673866 7.2701416 -1.9984596 0
-1.1408572 7.0323997 -1.9094113 0
-0.75861353 7.0969648 -1.9132357 0
-0.25437108 7.168479 -1.9228401 0
0.24586686 7.1902328 -1.9285861 0
0.74801528 7.1755657 -1.9340304 0
1.2465054 7.1385164 -1.9426841 0
1.748742 7.0680132 -1.9519836 0
2.0721328 7.0119023 -1.9598869 0
12.207062 7.239409 -1.9879884 0
13.257221 7.2181292 -1.7074614 0
-6.0448723 7.6476321 -1.6525135 0
-5.8177333 7.627089 -1.6819111 0
-5.4436164 7.8162045 -1.8132395 0
-4.7340779 7.7409439 -1.9188361 0
-4.4703422 7.9882464 -1.9355192 0
-3.7530756 7.6431355 -1.9550705 0
-3.2544022 7.8786979 -1.957209 0
-2.6576455 7.5845981 -1.9788575 0
-2.2526844 7.67942 -1.9837133 0
-1.7573576 7.8436184 -1.9924685 0
-1.4080414 7.9372163 -1.9979118 0
11.879938 7.8142052 -1.9917339 0
12.027291 7.5680604 -1.9903609 0
13.284422 7.7628436 -1.7708938 0
13.638004 7.8533669 -1.6490412 0
-6.1114373 8.1627541 -1.6474122 0
-5.8115807 8.1488447 -1.7564512 0
-5.2911563 8.1430273 -1.7379721 0
-4.2108426 8.1309156 -1.9363047 0
-3.7493708 8.3835144 -1.9421138 0
-2.7472293 8.1041603 -1.9647677 0
-2.2480731 8.2896481 -1.9721457 0
-1.7516342 8.435668 -1.9782432 0
-1.490554 8.496748 -1.9804691 0
11.736075 8.0798674 -1.9957423 0
12.973647 8.4961033 -1.8982368 0
13.199791 8.2301493 -1.8065239 0
-6.2429557 8.6585932 -1.6087911 0
-5.6357875 8.8439646 -1.794399 0
-5.0400724 8.5366192 -1.9176304 0
-4.7213182 8.6594591 -1.9080476 0
-4.3569551 8.9230995 -1.9209262 0
-3.2629464 8.6123161 -1.9476286 0
-2.7569129 8.8113213 -1.9524879 0
-2.3553712 8.9558735 -1.9582257 0
-1.2421504 8.5523338 -1.9843183 0
-0.7536788 8.6305532 -1.9892777 0
-0.43324962 8.6857719 -1.9966656 0
12.849385 8.7313261 -1.9016491 0
13.381629 8.7944231 -1.6779953 0
13.630971 8.6068296 -1.6893193 0
-5.6914468 9.3405704 -1.7363029 0
-5.2824769 9.270031 -1.772336 0
-4.7246847 9.3084621 -1.8323762 0
-4.1023283 9.0563965 -1.9232593 0
-3.7498527 9.2147179 -1.9246566 0
-3.2844751 9.4188414 -1.9297944 0
-2.1060543 9.0281057 -1.9603103 0
-1.7575374 9.118268 -1.9638413 0
-1.2532227 9.2351274 -1.9710028 0
-0.75234014 9.3130579 -1.9759926 0
-0.24966523 9.3870888 -1.9860185 0
0.26033771 9.4219637 -1.9934573 0
0.66840512 9.4249058 -1.9982204 0
12.652478 9.2445116 -1.9182234 0
13.400862 9.1557045 -1.7007827 0
13.634217 9.4710169 -1.7397718 0
-6.095459 9.7465048 -1.6088411 0
-5.7776313 9.6896219 -1.5787797 0
-5.2452579 9.5938787 -1.6261896 0
-4.7251148 9.6815042 -1.7069319 0
-4.3142748 9.9081278 -1.8971462 0
-3.025125 9.5148354 -1.9313686 0
-2.7497663 9.626749 -1.9369583 0
-2.2467043 9.7825241 -1.941897 0
-1.7503829 9.9214544 -1.9491615 0
-1.4934504 9.9969206 -1.9554106 0
12.336975 9.757493 -1.9254913 0
12.505248 9.5296164 -1.9245607 0
13.638182 9.7597723 -1.7576462 0
-6.6499243 10.417641 -1.7302001 0
-6.1615429 10.057281 -1.6509641 0
-5.5666218 10.044373 -1.6071709 0
-5.4113846 10.202837 -1.6163564 0
-4.6338024 10.285929 -1.7171423 0
-4.0586176 10.029865 -1.8993638 0
-3.7493377 10.196534 -1.9073517 0
-3.2470992 10.39989 -1.9127693 0
-2.9954562 10.493371 -1.9156868 0
-1.233526 10.051565 -1.959322 0
-0.73646557 10.133098 -1.9657143 0
-0.25140283 10.198893 -1.9738808 0
0.23829195 10.229191 -1.9797388 0
0.75138193 10.244414 -1.9875143 0
1.2515925 10.229063 -1.9939793 0
1.5728917 10.20955 -1.9986095 0
12.12284 10.215982 -1.9407016 0
13.692548 10.290098 -1.7045116 0
14.065156 10.368 -1.5245281 0
-4.6539984 10.72298 -1.7590673 0
-4.4144974 10.866107 -1.8500386 0
-2.7433887 10.590354 -1.9206879 0
-2.259356 10.767936 -1.9317087 0
-1.7649283 10.894008 -1.9376357 0
-1.3964263 10.974662 -1.9422797 0
2.935178 10.988126 -1.996954 0
3.0399208 10.967784 -1.9983431 0
12.150219 10.665079 -1.9791582 0
13.764515 10.765782 -1.6894246 0
-4.8672018 11.290557 -1.7212135 0
-4.1719122 11.154525 -1.8786926 0
-3.7446966 11.37352 -1.889061 0
-3.4712675 11.49435 -1.8941084 0
-1.1419849 11.022154 -1.9454675 0
-0.7521171 11.089096 -1.9514813 0
-0.25562003 11.151566 -1.9585034 0
0.24688451 11.191142 -1.9654659 0
0.74855095 11.204072 -1.971651 0
1.2396249 11.199483 -1.9784976 0
1.7528687 11.165516 -1.9845901 0
2.2631989 11.110903 -1.9910499 0
2.697551 11.041717 -1.9958177 0
13.947272 11.338615 -1.8318557 0
14.094812 11.277781 -1.5750786 0
-4.8189645 11.825432 -1.7879103 0
-3.2272725 11.596248 -1.8989698 0
-2.753443 11.769934 -1.9070257 0
-2.2477281 11.912752 -1.9126122 0
-1.9557431 11.990839 -1.916635 0
13.78747 11.75692 -1.8994448 0
-7.6678371 12.071676 -1.7500437 0
-5.2525864 12.232285 -1.628662 0
-4.6819859 12.283159 -1.8407342 0
-1.6992921 12.061437 -1.921693 0
-1.2375312 12.150041 -1.9268396 0
-0.74793017 12.220727 -1.9317009 0
-0.25833607 12.30047 -1.9411353 0
0.2369322 12.344641 -1.9480662 0
0.73662597 12.346237 -1.9514356 0
1.2462757 12.353189 -1.9589926 0
1.750262 12.331196 -1.9651539 0
2.2566466 12.318502 -1.9760317 0
2.7546091 12.242621 -1.9800274 0
3.2577739 12.159973 -1.9863809 0
3.6656537 12.111126 -1.9965731 0
13.620755 12.209315 -1.9175298 0
14.896523 12.381481 -1.6904727 0
-5.1532798 12.819273 -1.6905715 0
-4.5376496 12.541901 -1.867703 0
-4.2579527 12.685911 -1.8739978 0
-3.7562079 12.886944 -1.8798646 0
-3.4879253 12.992373 -1.8838471 0
13.664477 12.756055 -1.9596997 0
14.898461 12.540737 -1.699537 0
15.141891 12.826856 -1.7319589 0
-5.0338979 13.292418 -1.7393192 0
-4.9805365 13.465094 -1.7568685 0
-3.23085 13.088136 -1.8879761 0
-2.7507303 13.250324 -1.8952593 0
-2.2468481 13.39387 -1.9020464 0
-1.8990073 13.481643 -1.9066714 0
4.6658764 13.485284 -1.9987112 0
13.659719 13.154428 -1.9881313 0
15.282208 13.192203 -1.7620798 0
-5.8491368 13.945408 -1.5843726 0
-4.7829361 13.766716 -1.783639 0
-1.6515551 13.545847 -1.9111251 0
-1.2530692 13.613864 -1.9147183 0
-0.77314967 13.689938 -1.9204031 0
-0.26474616 13.75903 -1.9274082 0
0.24919398 13.804877 -1.9338102 0
0.75914645 13.819955 -1.9385422 0
1.2565918 13.831573 -1.9452348 0
1.7533817 13.824485 -1.9518099 0
2.2461703 13.824536 -1.961738 0
2.7430756 13.754505 -1.9644662 0
3.2456074 13.705672 -1.9728252 0
3.747016 13.652661 -1.9830394 0
4.2505784 13.566092 -1.9913353 0
4.5567265 13.506566 -1.9965773 0
15.32847 13.651955 -1.7916431 0
-5.7255964 14.072449 -1.5917594 0
-5.388814 14.224033 -1.5936408 0
-4.5498009 14.065922 -1.8092723 0
-4.3537345 14.371328 -1.8379358 0
12.380455 14.444923 -1.9945077 0
12.516438 14.373596 -1.998166 0
15.06676 14.233867 -1.8091788 0
-5.3899817 14.777939 -1.6482744 0
-4.0842171 14.530693 -1.8473767 0
-3.7536705 14.658008 -1.8520484 0
-3.2462504 14.834319 -1.8587071 0
-2.8610198 14.954727 -1.863626 0
6.3639183 14.953729 -1.9895577 0
6.7515078 14.831037 -1.9950012 0
11.755848 14.840383 -1.9848794 0
12.129186 14.605105 -1.9903613 0
15.35082 14.993779 -1.8731513 0
-5.3059311 15.205832 -1.6876469 0
-2.6113477 15.035868 -1.8679157 0
-2.2404995 15.124612 -1.8715142 0
-1.7368633 15.257897 -1.8797127 0
-1.2430087 15.35955 -1.886245 0
-0.7427237 15.430599 -1.8910134 0
-0.31779876 15.474999 -1.8946155 0
3.819083 15.463857 -1.9499094 0
4.2653322 15.406265 -1.9569778 0
4.7517543 15.329371 -1.9647287 0
5.2777767 15.255331 -1.9762332 0
5.7516422 15.086639 -1.9766126 0
6.1088095 15.034389 -1.9866654 0
10.885055 15.428503 -1.9795183 0
11.250136 15.182459 -1.981107 0
11.520406 15.003442 -1.983114 0
15.384239 15.452474 -1.9034815 0
15.596256 15.297264 -1.9070839 0
-5.2641006 15.79572 -1.7449285 0
-0.078432634 15.514409 -1.8990494 0
0.23523888 15.564798 -1.9055004 0
0.74547327 15.597397 -1.9114876 0
1.2627859 15.643876 -1.9212369 0
1.7648968 15.689548 -1.9327501 0
2.2580416 15.669515 -1.9380152 0
2.7457068 15.611223 -1.9404036 0
3.2538795 15.544644 -1.9441928 0
3.5741363 15.504364 -1.947716 0
10.244822 15.840464 -1.9777926 0
10.642306 15.595007 -1.979351 0
14.996185 15.736042 -1.8975549 0
15.104738 15.642374 -1.8982521 0
18.085133 15.843569 -1.6779221 0
-6.1032777 16.37155 -1.524412 0
-5.8811088 16.384613 -1.5188341 0
-5.0846076 16.085907 -1.768099 0
-4.8380184 16.359116 -1.7880117 0
9.3286428 16.398497 -1.9778875 0
9.7334728 16.161848 -1.9779711 0
14.254457 16.424664 -1.8984846 0
14.76315 16.280413 -1.9186029 0
15.057987 16.094202 -1.9240501 0
-5.6250448 16.617304 -1.5306641 0
-5.487813 16.81802 -1.5435282 0
-4.5838633 16.699152 -1.8150322 0
-4.2769809 16.915527 -1.82883 0
8.3715935 16.963886 -1.9832186 0
8.7288113 16.769352 -1.9820268 0
9.0765724 16.549734 -1.9788283 0
13.881402 16.746403 -1.8988496 0
14.049108 16.524401 -1.8933712 0
-5.4490032 17.240541 -1.5776933 0
-4.048048 17.004938 -1.8321749 0
-3.7664227 17.118505 -1.8372759 0
-3.2410088 17.269032 -1.8417498 0
-2.7469876 17.411827 -1.8476917 0
-2.4812236 17.491989 -1.8518264 0
6.907166 17.467478 -1.9691769 0
7.2356644 17.346798 -1.9704776 0
7.7369766 17.179022 -1.9752628 0
8.1379881 17.068054 -1.9823616 0
12.999653 17.486382 -1.9020869 0
13.242171 17.355936 -1.9057724 0
13.646539 17.156019 -1.9137077 0
-5.3305945 17.627415 -1.6069776 0
-2.215631 17.5756 -1.8568902 0
-1.7289386 17.690971 -1.8632545 0
-1.2431116 17.822592 -1.8727784 0
-0.75122702 17.892973 -1.8772848 0
-0.36318856 17.969563 -1.884021 0
3.8016255 17.984823 -1.9270171 0
4.2399096 17.979561 -1.936564 0
4.7485185 17.913721 -1.9428357 0
5.2756143 17.86796 -1.9531492 0
5.7637424 17.776436 -1.9591248 0
6.2443213 17.65937 -1.963695 0
6.6544499 17.543104 -1.9670166 0
12.37693 17.886791 -1.8988098 0
12.739699 17.645281 -1.8999081 0
18.362469 17.884224 -1.7890443 0
18.57399 17.755693 -1.7934389 0
-5.3400164 18.167444 -1.6524729 0
-0.11317255 18.015705 -1.8885157 0
0.25269577 18.06476 -1.8938699 0
0.75438613 18.129982 -1.9021857 0
1.2612845 18.138979 -1.9060881 0
1.7461411 18.161194 -1.9126097 0
2.2276859 18.129517 -1.9148221 0
2.73032 18.099377 -1.9188497 0
3.2581491 18.032673 -1.921001 0
3.5710495 18.002523 -1.9239509 0
11.755619 18.341047 -1.9017819 0
12.113858 18.085148 -1.9002044 0
17.939837 18.419342 -1.7946014 0
18.132763 18.163492 -1.7913462 0
10.862943 18.893394 -1.9025053 0
11.240992 18.66786 -1.9023049 0
11.503731 18.514214 -1.9027841 0
17.433067 18.905106 -1.7948805 0
17.693367 18.658583 -1.7947412 0
9.9154243 19.460417 -1.906619 0
10.239146 19.275764 -1.9054179 0
10.604624 19.057003 -1.9038301 0
16.272388 19.38806 -1.7666247 0
16.769829 19.299433 -1.7845101 0
17.195004 19.119165 -1.7947505 0
-4.8614798 19.796242 -1.7791975 0
-4.3895626 19.965267 -1.7842524 0
8.9552517 19.968563 -1.9104538 0
9.259758 19.820374 -1.9098003 0
9.6815195 19.599012 -1.9083041 0
-4.2095881 20.032589 -1.7866927 0
-3.0469947 20.423382 -1.8023808 0
-2.8903675 20.470238 -1.8044726 0
7.8912988 20.476458 -1.9156833 0
8.2936344 20.29697 -1.9141145 0
8.7090683 20.088434 -1.9113836 0
15.249829 20.358259 -1.775362 0
15.727038 20.204468 -1.7870491 0
-2.6470327 20.548813 -1.8084469 0
-2.4637859 20.610296 -1.8117936 0
-1.6691564 20.778803 -1.8195795 0
-1.2534767 20.86816 -1.8248421 0
-0.76858163 20.937166 -1.8288325 0
-0.42040753 20.983877 -1.8320137 0
5.3333387 20.844852 -1.8782412 0
5.7639608 20.900274 -1.8926243 0
6.2583675 20.819475 -1.8978163 0
6.749053 20.709276 -1.9014394 0
7.2535815 20.615417 -1.9078393 0
7.6553025 20.524323 -1.9122841 0
14.967022 20.573978 -1.7757207 0
22.154535 20.971729 -1.5962467 0
-0.16015041 21.032763 -1.835988 0
0.26503727 21.096533 -1.841688 0
0.75908005 21.132936 -1.8459089 0
1.2550197 21.173603 -1.8515366 0
1.7493783 21.173126 -1.8545434 0
2.0599113 21.165064 -1.856243 0
2.7952824 21.176073 -1.8645517 0
3.2609749 21.144073 -1.8675731 0
3.7554603 21.088598 -1.8698643 0
4.2465534 21.042562 -1.8739356 0
4.753952 21.012842 -1.8806716 0
5.1513028 21.235582 -1.9075485 0
13.955056 21.406916 -1.7835335 0
14.240828 21.266705 -1.7864037 0
14.568723 21.110516 -1.7902302 0
21.795389 21.332701 -1.5958281 0
22.104874 21.105076 -1.5991775 0
-5.7926087 21.532223 -1.5558484 0
13.392079 21.900291 -1.791695 0
13.822199 21.78191 -1.800594 0
21.26914 21.743025 -1.5915364 0
21.51018 21.51367 -1.5918505 0
-5.7424889 22.469404 -1.6183503 0
12.491634 22.498175 -1.7960896 0
12.752553 22.308073 -1.7934988 0
13.12175 22.07028 -1.7921137 0
20.389961 22.462303 -1.5873494 0
20.771994 22.250643 -1.5927775 0
21.068899 22.012407 -1.5943625 0
11.892249 22.90304 -1.8012052 0
12.225275 22.675844 -1.7980827 0
19.852362 22.921997 -1.5866866 0
20.157942 22.700851 -1.5885428 0
-5.7151299 23.266973 -1.6719929 0
11.2693 23.331863 -1.8085411 0
11.661161 23.069185 -1.8041816 0
19.32509 23.360918 -1.5864075 0
19.677187 23.130293 -1.5889894 0
-5.5843453 23.679243 -1.6978726 0
-5.3381348 23.798727 -1.7021697 0
10.330208 23.88899 -1.816626 0
10.762599 23.665623 -1.8146249 0
18.886414 23.870472 -1.5926878 0
19.027903 23.667282 -1.5889896 0
-5.0957503 24.116846 -1.7202877 0
-4.7317815 24.253601 -1.7246192 0
-4.3014727 24.437359 -1.7317463 0
9.3909435 24.487198 -1.8305492 0
9.7194052 24.32044 -1.8280979 0
10.066981 24.096741 -1.8227831 0
17.333138 24.457813 -1.5685085 0
17.523832 24.481424 -1.5753123 0
18.173401 24.417616 -1.5926877 0
18.869421 24.234108 -1.6071326 0
-4.0516667 24.529148 -1.7351226 0
-3.7555265 24.642509 -1.7397265 0
-3.2704682 24.818949 -1.7471803 0
-2.8165488 24.948215 -1.7522825 0
8.4556961 24.971058 -1.8401756 0
8.7856245 24.798946 -1.8363889 0
9.160984 24.56657 -1.8300612 0
