# .PCD v0.7 - Point Cloud Data file format
VERSION 0.7
FIELDS x y z intensity
SIZE 4 4 4 4
TYPE F F F F
COUNT 1 1 1 1
WIDTH 1427
HEIGHT 1
VIEWPOINT 0 0 0 1 0 0 0
POINTS 1427
DATA ascii
12.116602 3.7424045 -2.227757 0
12.812622 3.7397854 -2.1064942 0
13.936662 3.8112013 -2.0238864 0
14.030375 3.557317 -2.0274737 0
6.257596 4.2494469 -2.0285389 0
6.8518205 4.2878351 -2.153276 0
7.2053924 4.2141371 -2.1592214 0
7.6192675 4.2255774 -2.1605918 0
8.372139 4.2898788 -2.1609361 0
8.5225735 4.0414333 -2.1665034 0
9.37815 4.2843747 -2.1815207 0
9.5247269 4.0331573 -2.1883399 0
10.439123 4.3818855 -2.1913595 0
10.570702 4.1307697 -2.196763 0
11.868583 4.2604566 -2.2151628 0
12.00333 4.0168929 -2.2233913 0
12.730277 4.2365584 -2.1174967 0
13.804307 4.2559314 -2.0235302 0
5.8184123 4.7949519 -2.0218484 0
6.3129053 4.7904797 -2.1137815 0
6.6020122 4.6168547 -2.1458688 0
7.2591109 4.7457423 -2.150847 0
7.9587107 4.9379854 -2.1512518 0
8.1244154 4.6870084 -2.154525 0
8.9520245 4.9382567 -2.1629055 0
9.1263428 4.6934762 -2.1713183 0
10.23083 4.7477069 -2.183259 0
11.485428 4.9828753 -2.1990807 0
11.630064 4.7291727 -2.2054312 0
12.645484 4.7314439 -2.1309502 0
13.607154 4.7693119 -2.0197814 0
5.3107228 5.2751703 -2.0070753 0
5.7745123 5.2794218 -2.0885758 0
6.1424522 5.1383119 -2.133122 0
6.8066015 5.292963 -2.1381748 0
7.2197175 5.2153649 -2.135813 0
7.716886 5.2127433 -2.1391943 0
8.7211761 5.2440672 -2.1531749 0
9.8539705 5.2958503 -2.1653514 0
10.03765 5.0375109 -2.1736958 0
11.302237 5.2617316 -2.1900074 0
12.556572 5.239862 -2.1474802 0
13.435787 5.3134112 -2.0238552 0
13.520833 5.0845866 -2.0233915 0
5.3319693 5.8630691 -2.1108708 0
5.6425462 5.6162753 -2.1204674 0
6.3085976 5.8102198 -2.1267467 0
6.5608373 5.5534935 -2.1311705 0
7.2546139 5.7632203 -2.1284115 0
8.3310423 5.7751589 -2.1447248 0
8.5216017 5.5292549 -2.1489754 0
9.4151258 5.8949814 -2.1499403 0
9.5939198 5.6473074 -2.1546915 0
10.93499 5.850625 -2.1783295 0
11.049995 5.6122098 -2.1768534 0
12.458401 5.8208084 -2.1704063 0
12.504237 5.5635757 -2.1600473 0
13.240002 5.7354689 -2.0212214 0
4.4434457 6.4652753 -2.0891874 0
4.7511053 6.2692223 -2.0953131 0
5.1561522 6.1365814 -2.1033514 0
5.7582688 6.2860599 -2.1139538 0
6.0557623 6.0480933 -2.1219454 0
6.758009 6.2592559 -2.116015 0
7.8165579 6.3269324 -2.1275079 0
8.0726938 6.0715137 -2.1368568 0
8.9735336 6.4484324 -2.1385872 0
9.1782389 6.2136941 -2.1453035 0
10.474186 6.4692383 -2.1622672 0
10.711761 6.2301331 -2.1767147 0
12.300223 6.2607627 -2.1785305 0
12.935429 6.3607898 -2.0191233 0
13.062015 6.1231079 -2.0207005 0
3.3945606 6.9572854 -2.0614419 0
3.7590232 6.802784 -2.070102 0
4.1945882 6.5918736 -2.080905 0
4.8401527 6.9006681 -2.0897214 0
5.22855 6.6569409 -2.0988681 0
5.9168868 6.935966 -2.0937159 0
6.2486501 6.693758 -2.1033742 0
7.2965279 6.7972784 -2.1096435 0
7.5668168 6.5592618 -2.1183426 0
8.4708796 6.9584804 -2.1215415 0
8.7231321 6.7055259 -2.1295977 0
9.9900532 6.983335 -2.1407347 0
10.218588 6.73206 -2.1494379 0
11.888519 6.8896646 -2.1687293 0
12.091871 6.6360059 -2.1770313 0
12.748371 6.7380352 -2.0198941 0
0.5526011 7.4924254 -2.0001535 0
1.3046062 7.476851 -2.0209885 0
1.7483444 7.4165835 -2.0292356 0
2.2574947 7.3125615 -2.0381289 0
2.7619641 7.1736345 -2.0472116 0
3.145669 7.0486922 -2.0554545 0
3.7602649 7.4099984 -2.0601101 0
4.2505841 7.2036829 -2.0738008 0
4.5900021 7.0445957 -2.084399 0
5.2465382 7.3777337 -2.0792675 0
5.6689124 7.1206861 -2.0903652 0
6.4808235 7.476191 -2.092839 0
6.7504373 7.2700386 -2.0988264 0
7.0681062 7.0509377 -2.1118839 0
7.9400201 7.4391756 -2.1056156 0
8.2200022 7.1916542 -2.1138942 0
9.4774818 7.4719915 -2.1195498 0
9.7416773 7.2231822 -2.1301525 0
11.459649 7.4413319 -2.1565013 0
11.623008 7.1955843 -2.1576011 0
12.413898 7.367631 -2.0220659 0
12.555623 7.1132436 -2.0213499 0
0.80148768 7.5282617 -2.0159266 0
1.0597374 7.5070906 -2.0185816 0
1.7767689 7.9675808 -2.0235958 0
2.2494757 7.8808084 -2.0317085 0
2.7467766 7.7658653 -2.0421109 0
3.245043 7.6057243 -2.0500691 0
3.81499 7.8307214 -2.050703 0
4.245955 7.8727098 -2.0542529 0
4.7464685 7.631711 -2.0641062 0
5.820888 7.8907981 -2.074127 0
6.227634 7.6498013 -2.0867398 0
7.3235302 7.9101758 -2.086132 0
7.6886029 7.6589689 -2.1003237 0
8.9774914 7.9712381 -2.1084361 0
9.2356386 7.7284584 -2.1151979 0
10.894261 7.9223809 -2.1258817 0
11.206122 7.6788731 -2.1441147 0
12.235718 7.7601376 -2.029654 0
0.8555485 8.0271673 -2.0008259 0
1.2418609 8.0202847 -2.0118222 0
1.5255917 8.0020952 -2.0190802 0
2.3667808 8.4708738 -2.0195203 0
2.7457626 8.3725338 -2.0234227 0
3.24716 8.2295332 -2.0316634 0
3.7148955 8.0738783 -2.0409677 0
4.8239169 8.4307947 -2.0545137 0
5.241231 8.2233868 -2.0628345 0
5.5719914 8.0405722 -2.0691373 0
6.7609401 8.3481874 -2.0790548 0
7.0702257 8.0790663 -2.0775282 0
8.4438572 8.4399261 -2.0966282 0
8.7204504 8.1899347 -2.1011863 0
10.645303 8.2263498 -2.1233521 0
12.095183 8.2550478 -2.0513558 0
1.358142 8.6157084 -2.0026371 0
1.7495273 8.5833521 -2.0115123 0
2.113189 8.5267601 -2.0170612 0
3.3589802 8.9547148 -2.0227313 0
3.7465041 8.8427219 -2.0313215 0
4.2492847 8.6566572 -2.0398107 0
4.5836973 8.526042 -2.047348 0
5.820477 8.9087172 -2.0592742 0
6.2480111 8.6629953 -2.0670972 0
7.876308 8.9059601 -2.0879457 0
8.1921139 8.6504335 -2.0924108 0
9.9126434 8.9660921 -2.1093624 0
10.260859 8.771162 -2.130548 0
10.509098 8.5406418 -2.1372075 0
11.971395 8.896142 -2.0894058 0
12.024764 8.6490126 -2.0749781 0
1.9494014 9.2577848 -2.0007343 0
2.2561386 9.2183819 -2.0072527 0
2.7490497 9.1258602 -2.0158625 0
3.1067536 9.0275583 -2.0191343 0
4.4618254 9.4880428 -2.0286813 0
4.7476501 9.3676643 -2.0322731 0
5.2376747 9.1540461 -2.0408928 0
5.5698953 9.0382061 -2.0543261 0
6.9139433 9.4536514 -2.056689 0
7.2586017 9.3079462 -2.0730119 0
7.6279688 9.0694351 -2.0811734 0
9.3415003 9.38204 -2.089401 0
9.6711369 9.1324949 -2.0992255 0
11.835553 9.2701712 -2.1062458 0
2.8373666 9.9584236 -2.0034943 0
3.2520263 9.8457174 -2.0063565 0
3.7552049 9.7179041 -2.0159447 0
4.2158279 9.5763235 -2.024647 0
5.9444299 9.9770508 -2.039324 0
6.2370472 9.8401251 -2.0459459 0
6.7014832 9.6586771 -2.0645032 0
8.4559708 9.978714 -2.0639963 0
8.7539272 9.804739 -2.074363 0
9.0870056 9.5623646 -2.0817046 0
11.346169 9.8746328 -2.1072199 0
11.612787 9.6291809 -2.1134429 0
2.4618914 10.042117 -2.0004416 0
2.587558 10.015271 -2.0013573 0
4.8230076 10.408811 -2.0144346 0
5.2586884 10.25759 -2.0241921 0
5.7024212 10.098126 -2.0364881 0
7.8370357 10.438716 -2.0598507 0
8.2405796 10.228946 -2.0729802 0
10.434692 10.483215 -2.0720091 0
10.768382 10.356309 -2.0930707 0
11.113419 10.105239 -2.1042972 0
3.9262204 10.697653 -2.0008438 0
4.2490344 10.604135 -2.0059838 0
4.5580335 10.513515 -2.0120616 0
6.8275423 10.911909 -2.0311451 0
7.2653394 10.742144 -2.0465202 0
7.593081 10.551251 -2.0512936 0
10.21189 10.739038 -2.0760772 0
5.4773102 11.491453 -2.0086184 0
5.7455435 11.408449 -2.0156462 0
6.2418909 11.251825 -2.0304711 0
6.5885472 11.098731 -2.0366724 0
9.3272285 11.360827 -2.0591495 0
9.7494946 11.114243 -2.0711489 0
10.0346 11.017317 -2.0875964 0
11.965523 11.188351 -2.0054817 0
12.024216 11.375064 -2.0264435 0
5.3063469 11.545498 -2.0049424 0
8.2785501 11.9557 -2.0370612 0
8.7410145 11.744551 -2.0509405 0
9.0643978 11.538778 -2.0554476 0
11.847735 11.812297 -2.0483797 0
12.013176 11.539159 -2.0393615 0
7.3360863 12.427702 -2.0214891 0
7.7701612 12.244424 -2.0314565 0
8.030508 12.032808 -2.0263603 0
11.231578 12.29458 -2.0388739 0
11.582893 12.061892 -2.047405 0
6.2502418 12.894624 -2.0071855 0
6.7972488 12.654913 -2.0121646 0
7.087328 12.534013 -2.0168965 0
10.377657 12.948112 -2.0315621 0
10.759772 12.687488 -2.0368025 0
9.8146505 13.314821 -2.0251763 0
10.104776 13.060518 -2.021666 0
8.801321 13.85691 -2.0097299 0
9.2697592 13.73343 -2.028615 0
9.5600386 13.531636 -2.0283935 0
59.352528 -63.033272 -1.510401 0
60.946308 -63.160561 -1.5312043 0
61.339558 -63.191841 -1.5363703 0
58.945194 -62.993256 -1.5050257 0
1.9069511 -47.356899 -1.6533985 0
1.7288393 -46.56768 -1.6256185 0
2.3110757 -46.650486 -1.6293877 0
2.6758265 -46.600899 -1.6283407 0
1.5783643 -46.449032 -1.621291 0
2.4404416 -46.315643 -1.6179405 0
1.1928636 -43.013405 -1.5009575 0
80.757652 -35.217506 -1.5369985 0
81.197876 -34.80397 -1.541187 0
82.071144 -34.165604 -1.5508906 0
82.307014 -33.80949 -1.5523217 0
82.663773 -33.501789 -1.5560565 0
82.912987 -33.300983 -1.5587791 0
83.078659 -33.080566 -1.5600357 0
18.452215 -29.806805 -1.8346893 0
18.547882 -29.761492 -1.8353174 0
0.22098613 -29.109383 -1.5230811 0
19.374275 -28.742527 -1.8140688 0
19.739304 -28.736254 -1.824571 0
19.623415 -28.434851 -1.8081026 0
21.089651 -27.702169 -1.8221288 0
17.924797 -27.126236 -1.701442 0
18.062883 -27.070547 -1.7030121 0
19.270752 -27.19795 -1.7443924 0
19.557932 -27.245125 -1.7551386 0
20.802334 -27.152586 -1.790099 0
19.369822 -26.804651 -1.7306454 0
19.668066 -26.772629 -1.7384957 0
20.597469 -26.647377 -1.7625703 0
-3.6261489 -26.430101 -1.8621258 0
19.195581 -26.388248 -1.7076176 0
-0.30255899 -25.13306 -1.7542359 0
18.89731 -25.395142 -1.656433 0
-0.52219623 -24.538767 -1.71294 0
-0.37272224 -24.569427 -1.7148931 0
-0.59065241 -24.18996 -1.6886647 0
-0.32736394 -24.20068 -1.6890832 0
-0.65300483 -23.701365 -1.6546235 0
18.857145 -22.81703 -1.5487953 0
-3.2579088 -22.281387 -1.9658849 0
18.16865 -22.264368 -1.5035074 0
19.748798 -22.224743 -1.555634 0
-3.2398505 -21.691933 -1.9146374 0
18.30867 -21.7897 -1.9868039 0
18.437843 -21.204617 -1.961552 0
-1.1220779 -20.726658 -1.8117936 0
-0.9535495 -20.57955 -1.7981973 0
18.369108 -20.793739 -1.9367886 0
19.963617 -20.930393 -1.5133466 0
20.02928 -20.867567 -1.5133466 0
20.590736 -20.861727 -1.5336529 0
-1.0024658 -20.262049 -1.7706561 0
18.084885 -20.029993 -1.8837039 0
17.926544 -19.700558 -1.8592194 0
19.419863 -19.895695 -1.9407647 0
-29.025251 -19.293079 -1.8240128 0
-28.862631 -19.381815 -1.8195119 0
16.381775 -19.131353 -1.7578632 0
17.900278 -19.156395 -1.8299913 0
-1.3360106 -18.811571 -1.7562727 0
17.643053 -18.590397 -1.788835 0
18.124031 -18.917398 -1.8285961 0
19.134142 -18.037922 -1.8354324 0
17.631113 -17.618668 -1.7395868 0
18.159235 -17.865316 -1.7779529 0
18.788008 -17.8232 -1.8075298 0
-1.453347 -17.172068 -1.8062519 0
17.477365 -17.300819 -1.7162883 0
17.586117 -17.144524 -1.714056 0
-1.5640337 -16.626997 -1.7502246 0
-1.4969108 -16.75701 -1.7631861 0
17.561474 -16.917665 -1.7017789 0
-1.6632484 -16.112417 -1.8393111 0
17.451273 -16.244757 -1.6638314 0
17.774841 -16.088556 -1.6731324 0
-1.7656465 -15.683092 -1.7939882 0
17.950785 -15.69721 -1.6641105 0
18.187496 -15.65554 -1.6747134 0
-1.9083109 -15.405156 -1.6264628 0
17.478558 -15.478824 -1.6292323 0
17.738049 -15.316921 -1.6355104 0
-2.0157857 -14.773387 -1.5620733 0
-1.8698705 -14.930322 -1.7090012 0
17.226892 -14.692986 -1.9766922 0
-2.0308652 -14.015065 -1.9834951 0
-1.8965542 -14.137937 -1.9472851 0
16.958843 -14.288303 -1.9359033 0
17.144285 -14.151746 -1.7280421 0
-2.0276091 -13.932003 -1.7227451 0
-1.9393059 -13.935169 -1.7216076 0
16.912155 -13.541632 -1.8912797 0
17.290224 -13.792644 -1.6536745 0
-2.0188677 -13.40652 -1.7379128 0
-1.9657834 -13.275973 -1.8793935 0
16.907461 -13.309472 -1.8150811 0
17.141668 -13.238861 -1.636898 0
-2.094121 -12.706371 -1.6783891 0
-1.9834927 -12.840635 -1.8192708 0
16.798264 -12.694906 -1.8379405 0
-2.2583456 -12.220466 -1.7402883 0
-1.958166 -12.384491 -1.5336038 0
16.721973 -12.275484 -1.8106606 0
19.445984 -12.041619 -1.5960281 0
-2.532717 -11.686374 -1.8862867 0
-2.3083751 -11.597197 -1.7600474 0
16.65144 -11.789589 -1.780816 0
19.064257 -11.856807 -1.5665444 0
-2.5095358 -11.325441 -1.8296576 0
-2.3914335 -11.286021 -1.7500802 0
16.489874 -11.373534 -1.7483442 0
16.653368 -11.224021 -1.7528182 0
17.486595 -11.124352 -1.8090047 0
17.504015 -11.059665 -1.8072615 0
18.775023 -11.330612 -1.530085 0
19.358482 -11.367721 -1.5664513 0
19.524343 -11.344903 -1.5756592 0
-2.541163 -10.609606 -1.7203097 0
-2.4169683 -10.673609 -1.7263647 0
16.860664 -10.677441 -1.7419529 0
17.334915 -10.879518 -1.7863442 0
-2.5576701 -10.211161 -1.7652231 0
-2.4522679 -10.456797 -1.8853561 0
16.857841 -10.121295 -1.7160965 0
17.007811 -10.378284 -1.7389313 0
19.327957 -10.132724 -1.5226444 0
19.535885 -10.320252 -1.5416181 0
-2.6215982 -9.6862621 -1.7945133 0
-2.490582 -9.8176508 -1.7774627 0
16.887089 -9.7384243 -1.7012801 0
17.106682 -9.912941 -1.7255675 0
-3.0056806 -9.1679201 -1.6927224 0
-2.7482307 -9.1909838 -1.7218951 0
16.449638 -9.0883379 -1.860412 0
16.546558 -9.3999701 -1.9951 0
-4.530942 -8.6435108 -1.5380636 0
-4.4992752 -8.6823053 -1.5411924 0
-2.8162515 -8.6889439 -1.8400277 0
16.331944 -8.7081556 -1.8990743 0
16.779957 -8.6363354 -1.6943983 0
-5.8801975 -8.3642864 -1.6733793 0
-4.7915034 -8.2286663 -1.5005194 0
-3.0914142 -8.1462002 -1.7156994 0
-2.8813422 -8.2054214 -1.7392403 0
16.394215 -8.2635479 -1.924578 0
16.719803 -8.2462349 -1.6268492 0
-5.6891727 -7.7400875 -1.6053717 0
-5.3852153 -7.6977544 -1.7318875 0
-3.0911679 -7.7791672 -1.7773727 0
-2.8644469 -7.6315351 -1.9275869 0
16.320856 -7.7858186 -1.8315928 0
16.554003 -7.9087014 -1.6008768 0
-5.6174588 -7.0809021 -1.6670876 0
-5.3639894 -7.4010825 -1.6033516 0
-4.9738107 -7.2751188 -1.5454688 0
-3.5182059 -7.2119398 -1.8414493 0
-3.1430078 -7.191802 -1.7236469 0
-2.9397411 -7.230329 -1.8820548 0
16.148003 -7.2691875 -1.6906382 0
-5.5345106 -6.8402772 -1.6688112 0
-5.4476857 -6.8159027 -1.6867514 0
-3.5660751 -6.5732522 -1.8245728 0
-3.1887729 -6.7090001 -1.813063 0
-2.8483164 -6.8087463 -1.9739498 0
15.952743 -6.5554409 -1.5804734 0
16.072924 -6.8333507 -1.7025665 0
-5.9427972 -6.2081404 -1.5069189 0
-5.2803917 -6.426208 -1.6073749 0
-4.9035406 -6.0334086 -1.6423637 0
-3.6638913 -6.260376 -1.8141669 0
-3.2595143 -6.2579198 -1.7970041 0
-2.9430494 -6.3941646 -1.8863131 0
15.939296 -6.3828125 -1.7390617 0
16.112288 -6.2545643 -1.7505054 0
16.711304 -6.2019987 -1.7254269 0
17.13998 -6.3096724 -1.59373 0
-4.5359545 -5.779108 -1.5513539 0
-4.1727071 -5.7160702 -1.7487143 0
-3.6788182 -5.6549006 -1.7978479 0
-3.3652718 -5.8149595 -1.7095886 0
16.673338 -5.892971 -1.6463989 0
-6.2007055 -5.4158068 -1.8895888 0
-5.961565 -5.2569795 -1.8239033 0
-4.058085 -5.1171579 -1.7492008 0
-3.8343034 -5.3642435 -1.7630239 0
-3.3184128 -5.279397 -1.6088676 0
15.780873 -5.17382 -1.7404685 0
-6.7077379 -4.7056632 -1.8670077 0
-4.070333 -4.925035 -1.7109935 0
-3.4584844 -4.5729632 -1.5234089 0
15.769997 -4.7667131 -1.8085238 0
16.160944 -4.994894 -1.7728026 0
-6.4102225 -4.3906779 -1.9252144 0
-3.4686582 -4.4703555 -1.503221 0
15.62916 -4.2326188 -1.856607 0
16.007051 -4.4603634 -1.7414442 0
17.975351 -4.0407596 -1.6076748 0
-6.2738152 -3.9509468 -1.5657138 0
15.433891 -3.7136371 -1.9432676 0
15.697716 -3.8753767 -1.7296622 0
18.223965 -3.908231 -1.6264423 0
-4.9442511 -3.2153196 -1.5674081 0
15.44112 -3.3622282 -1.9344727 0
15.701176 -3.174571 -1.8336239 0
16.073292 -3.1661849 -1.7167754 0
15.477349 -2.7015147 -1.9232376 0
15.556009 -2.8317237 -1.7682221 0
16.116245 -2.6308143 -1.7112702 0
15.376827 -2.2439539 -1.8772721 0
15.812603 -2.2093873 -1.6730826 0
16.120329 -2.3672049 -1.7074376 0
15.295994 -1.7412366 -1.7881132 0
15.714971 -1.7756438 -1.6571943 0
15.206058 -1.2401655 -1.8674284 0
15.814252 -1.2164081 -1.6620722 0
16.277466 -1.0992781 -1.7096677 0
14.021583 -0.57379901 -1.8413749 0
15.352854 -0.87157482 -1.8140316 0
15.535777 -0.84039336 -1.630226 0
14.053925 -0.45310476 -1.886557 0
14.942169 -0.18033938 -1.678562 0
15.214334 -0.4015356 -1.6843084 0
14.947612 0.22497322 -1.7547553 0
15.067258 0.27016103 -1.6121206 0
14.845165 0.75507325 -1.6885046 0
15.008339 0.86832374 -1.8399833 0
14.436293 1.2194209 -1.7729552 0
14.801138 1.2187197 -1.703624 0
15.099826 1.3642572 -1.6419666 0
14.736191 1.7728847 -1.6857646 0
15.204683 1.5657881 -1.7350125 0
14.715329 2.2558384 -1.6905686 0
14.620013 2.7519672 -1.6893845 0
-4.7021346 3.3669002 -1.5438406 0
-4.4701395 3.4583449 -1.5119681 0
14.483909 3.4566197 -1.8224342 0
14.62657 3.225872 -1.7008331 0
-5.0389881 3.8765135 -1.690606 0
-4.6831951 3.7985513 -1.6026607 0
-4.4453883 3.506851 -1.5042562 0
14.412024 3.7677357 -1.7006857 0
14.589693 3.6574798 -1.6893265 0
15.024336 3.5557363 -1.6176825 0
-4.6314507 4.2297897 -1.6391755 0
14.380893 4.2493687 -1.7095102 0
14.540204 4.0185976 -1.5804703 0
-5.2149496 4.6713829 -1.6052507 0
-4.657505 4.7609401 -1.6825635 0
13.381036 4.5630884 -1.9801549 0
14.360043 4.7649889 -1.7627755 0
14.816252 4.8393459 -1.6331527 0
-4.648386 5.2151437 -1.7640736 0
-4.3749981 5.3273091 -1.8472663 0
5.075881 5.4613767 -1.998799 0
14.280621 5.2601323 -1.8627839 0
14.929375 5.2123728 -1.6569853 0
15.20958 5.4701633 -1.6937792 0
-5.015377 5.7821236 -1.6167214 0
-4.723773 5.7145772 -1.7639742 0
-4.2596283 5.7564521 -1.9127904 0
-3.7877159 5.8689556 -1.8721589 0
4.3978763 5.9375415 -1.9807816 0
4.7493253 5.7012677 -1.9896934 0
5.0121002 5.5111852 -1.9970275 0
14.16503 5.748641 -1.8711818 0
14.752215 5.8265343 -1.6620548 0
15.086892 5.5052247 -1.6829083 0
-5.0744061 6.2131486 -1.6471204 0
-4.756 6.2629375 -1.7878534 0
-4.227911 6.2063437 -1.9487839 0
-3.7388527 6.3058939 -1.9532473 0
-3.264482 6.1905475 -1.8753984 0
-2.7916782 6.4111867 -1.8740938 0
3.4298213 6.4696355 -1.9628147 0
3.7489104 6.2961993 -1.964725 0
4.1484814 6.0811892 -1.9734329 0
14.103627 6.2617888 -1.8657308 0
14.745714 6.2771897 -1.6794239 0
-5.0570054 6.8440404 -1.6447735 0
-4.7834992 6.7798386 -1.7987001 0
-4.183002 6.5992041 -1.9362859 0
-3.7405167 6.8252487 -1.9289643 0
-3.2644944 6.6580925 -1.9584029 0
-2.7203076 6.811821 -1.9547437 0
-2.2689748 6.6566687 -1.8840194 0
-1.7475443 6.7928443 -1.8799738 0
-1.2521877 6.9199576 -1.8848747 0
-0.93296117 6.9881659 -1.8893273 0
1.7645918 6.9645233 -1.9258975 0
2.2500014 6.8744116 -1.939105 0
2.7460897 6.7346902 -1.9498422 0
3.1811528 6.5757351 -1.9582413 0
13.92573 6.758606 -1.8947803 0
14.336431 6.8756576 -1.6661139 0
14.64095 6.6896224 -1.6868106 0
16.101658 6.6419468 -1.5196476 0
-5.0635257 7.3368721 -1.6434777 0
-4.8317003 7.2519794 -1.812919 0
-4.2623281 7.1647005 -1.9139618 0
-3.8738105 7.3695192 -1.9111023 0
-3.2292233 7.1850014 -1.9523787 0
-2.7797332 7.398201 -1.958793 0
-2.2329135 7.0778556 -1.976096 0
-1.7483288 7.2237616 -1.9789978 0
-1.2429773 7.3378234 -1.9816598 0
-0.71896547 7.2620745 -1.9483147 0
-0.2549977 7.2704015 -1.9436538 0
0.26680389 7.2677865 -1.9435521 0
0.75020683 7.0747328 -1.907029 0
1.2476487 7.042264 -1.9171238 0
1.5119808 7.0042677 -1.9204392 0
13.751704 7.2716923 -1.8810052 0
14.198792 7.2493563 -1.6706158 0
-5.1634269 7.7934942 -1.6400201 0
-4.7756352 7.6752892 -1.8321941 0
-4.3712134 7.8734698 -1.904055 0
-3.6416962 7.5670133 -1.9277555 0
-3.2592456 7.7589083 -1.9321365 0
-2.8131337 7.886869 -1.9416062 0
-2.2547109 7.6045775 -1.9659894 0
-1.7468269 7.7471232 -1.9684153 0
-1.2427324 7.8569045 -1.9716402 0
-0.74324369 7.9398704 -1.9765985 0
-0.31457105 7.9862714 -1.980921 0
0.039451636 7.501081 -1.9970477 0
13.2053 7.8539801 -1.8035314 0
13.781913 7.6990681 -1.7457951 0
14.205894 7.5504708 -1.6858351 0
-5.1764317 8.3232079 -1.6610345 0
-4.779705 8.2185726 -1.8389049 0
-4.1251111 8.0889854 -1.9198945 0
-3.7488363 8.283062 -1.9225924 0
-3.386981 8.4329472 -1.9214739 0
-2.5993147 8.0366135 -1.9389658 0
-2.2497468 8.152029 -1.9415976 0
-1.7483314 8.3007631 -1.9476261 0
-1.2477286 8.4192801 -1.9541382 0
-0.87200928 8.482851 -1.9577042 0
-0.0663931 8.006547 -1.9843403 0
0.24407768 8.0308475 -1.9915493 0
0.60513169 8.0389214 -1.9980597 0
13.144404 8.2466211 -1.8693848 0
13.794001 8.0917625 -1.6758002 0
-5.5584664 8.6827393 -1.6252497 0
-5.1466422 8.7924824 -1.7093738 0
-4.6696181 8.6816788 -1.8658767 0
-4.2585144 8.8264065 -1.8958381 0
-3.9454813 8.9745045 -1.8962599 0
-3.1332903 8.5526724 -1.9259427 0
-2.7455921 8.6866903 -1.9264636 0
-2.2506692 8.8450594 -1.9300332 0
-1.8119884 8.9651241 -1.9340265 0
-0.62186342 8.5165052 -1.9603735 0
-0.25340804 8.557128 -1.9655985 0
0.25088605 8.5992355 -1.9753072 0
0.74513781 8.6261301 -1.9880463 0
1.0997214 8.6241636 -1.9961033 0
13.133339 8.7824183 -1.9340664 0
13.672098 8.8111725 -1.7045572 0
-5.7870383 9.0370283 -1.5013994 0
-5.364409 9.2941055 -1.6348789 0
-4.8451505 9.269701 -1.8359574 0
-3.6915588 9.0765963 -1.895442 0
-3.254144 9.2926359 -1.9047405 0
-2.8411098 9.4507637 -1.9089921 0
-1.5645975 9.0187359 -1.9354082 0
-1.2471528 9.0988636 -1.9421259 0
-0.73999286 9.1826668 -1.9481784 0
-0.2437842 9.2488031 -1.9565715 0
0.24452762 9.2847233 -1.9642031 0
0.74927175 9.3022518 -1.9736826 0
1.2629606 9.2943153 -1.9837089 0
1.7007903 9.2856541 -1.9964643 0
12.844607 9.2700987 -1.9391407 0
13.013062 9.0271091 -1.9386975 0
13.565413 9.157259 -1.7151867 0
-5.6242476 9.8620043 -1.5888002 0
-5.2874146 9.7071352 -1.649985 0
-4.6132274 9.5672464 -1.8643862 0
-4.2277665 9.7167711 -1.8602347 0
-3.89659 9.9763393 -1.880064 0
-2.5930622 9.5329504 -1.9110156 0
-2.2566013 9.6311092 -1.9136572 0
-1.7478559 9.7425995 -1.9148694 0
-1.2556373 9.8710012 -1.9250244 0
-0.78427577 9.9680414 -1.9343961 0
12.375904 9.8580627 -1.9368694 0
12.597882 9.6031466 -1.9391037 0
13.490911 9.9513063 -1.7569144 0
13.639008 9.7993298 -1.7601199 0
-5.5245833 10.458937 -1.6556032 0
-5.210711 10.219082 -1.7569932 0
-4.8348689 10.381197 -1.8063173 0
-4.3166246 10.489913 -1.7889845 0
-3.6379216 10.094187 -1.8835272 0
-3.251826 10.253601 -1.8884125 0
-2.7639768 10.414519 -1.8916364 0
-2.4733555 10.493003 -1.8924179 0
-0.52204919 10.003925 -1.9378562 0
-0.24485365 10.028287 -1.9407183 0
0.25260249 10.064147 -1.9477304 0
0.75707942 10.107719 -1.9610871 0
1.2471193 10.10857 -1.9706243 0
1.7410553 10.092234 -1.9815514 0
2.2066231 10.078338 -1.9962144 0
12.122906 10.256229 -1.9439267 0
13.44971 10.147337 -1.7657785 0
13.541476 10.448975 -1.7926631 0
14.259902 10.015607 -1.5203449 0
-5.4353638 10.811485 -1.6939454 0
-4.6477313 10.587294 -1.8237911 0
-4.2896333 10.839379 -1.8388351 0
-2.2160175 10.571633 -1.8962381 0
-1.7468859 10.694489 -1.9023968 0
-1.2531501 10.80711 -1.9100373 0
-0.75338417 10.890023 -1.916474 0
-0.24842952 10.96231 -1.9251331 0
1.5316603 10.995459 -1.9490272 0
2.4840081 10.99792 -1.9795893 0
2.7407975 10.95269 -1.9824667 0
3.2424812 10.863376 -1.9907027 0
3.6719761 10.758477 -1.9960511 0
11.968905 10.748484 -1.9693476 0
13.466759 10.798806 -1.8092483 0
13.601208 10.776545 -1.5893474 0
-5.5797229 11.290339 -1.5404284 0
-5.1936131 11.230479 -1.7322981 0
-4.0615888 11.023143 -1.8530184 0
-3.7534194 11.177439 -1.8600448 0
-3.2385271 11.371099 -1.8651454 0
-2.903924 11.472085 -1.8667011 0
0.26266935 11.017954 -1.9349965 0
0.75642252 11.021933 -1.9396998 0
1.2576222 11.025983 -1.9484714 0
1.784204 11.053863 -1.9659644 0
2.2403612 11.030798 -1.9763834 0
11.947578 11.067742 -1.9937823 0
13.379509 11.276535 -1.8340982 0
13.8268 11.358253 -1.5613079 0
-5.5492778 11.537848 -1.5661024 0
-5.077383 11.781992 -1.6594074 0
-4.9300475 11.897614 -1.7177768 0
-2.6637361 11.554832 -1.8705392 0
-2.256654 11.674911 -1.8758725 0
-1.7535478 11.804658 -1.8827108 0
-1.2470634 11.901468 -1.8878511 0
-0.89793479 11.973335 -1.8941084 0
3.747781 11.941155 -1.9747839 0
4.2598615 11.815159 -1.98176 0
4.75425 11.642894 -1.9843934 0
5.0837121 11.578883 -1.9952694 0
12.908061 11.763525 -1.8305024 0
13.171599 11.752642 -1.850363 0
13.737865 11.721539 -1.5757759 0
-5.648962 12.311802 -1.6573688 0
-4.7022805 12.174447 -1.82752 0
-4.2486811 12.34797 -1.8286059 0
-3.9923937 12.480839 -1.8348582 0
-0.65708488 12.015978 -1.8984104 0
-0.25047788 12.065356 -1.9038969 0
0.25430602 12.113296 -1.9114845 0
0.74515891 12.119814 -1.9157202 0
1.2420503 12.185623 -1.9325193 0
1.7418913 12.185669 -1.9421461 0
2.2408419 12.16507 -1.9516766 0
2.73809 12.111462 -1.9591855 0
3.2395377 12.044361 -1.9679456 0
12.894519 12.313135 -1.8689167 0
13.029114 12.058065 -1.8608158 0
13.772964 12.125823 -1.6012254 0
14.046474 12.484237 -1.6399225 0
-5.1887956 12.970474 -1.7093881 0
-3.7329652 12.599702 -1.8402108 0
-3.2340305 12.771444 -1.8449214 0
-2.7436106 12.925344 -1.8503528 0
-2.4855268 12.995025 -1.8526722 0
5.9443002 12.968254 -1.9981546 0
6.3497791 12.778107 -1.9988041 0
6.5390706 12.690693 -1.999639 0
12.467746 12.934864 -1.8831848 0
12.623733 12.668643 -1.874718 0
13.937349 12.54051 -1.6360877 0
14.04073 12.734878 -1.6542161 0
-5.2158604 13.321535 -1.55329 0
-4.7498035 13.085769 -1.6840376 0
-4.2512064 13.151076 -1.6911922 0
-2.2285931 13.057881 -1.8550382 0
-1.7492479 13.178275 -1.861672 0
-1.2617604 13.287894 -1.8692341 0
-0.7510289 13.340517 -1.8712144 0
-0.23438303 13.449924 -1.8838934 0
0.038369533 13.495929 -1.8899708 0
2.9391043 13.463022 -1.9299134 0
3.2493937 13.388253 -1.9295465 0
3.7468379 13.354501 -1.9426708 0
4.262207 13.337487 -1.9611768 0
4.7553501 13.304821 -1.9790413 0
5.2595811 13.22261 -1.9932836 0
5.7043476 13.081369 -1.9989588 0
12.422815 13.208173 -1.9007456 0
14.138278 13.243358 -1.690647 0
-5.2836213 13.695498 -1.5379064 0
-4.8361821 13.615307 -1.5135722 0
-4.1231833 13.826991 -1.7235144 0
-3.9390957 13.945994 -1.7734426 0
0.28898498 13.513492 -1.8929565 0
0.76703781 13.525626 -1.8973006 0
1.2544913 13.537797 -1.9040902 0
1.7448921 13.543351 -1.9124705 0
2.2450621 13.594947 -1.9298501 0
2.6715317 13.547122 -1.9338875 0
8.2650642 13.952608 -1.9853327 0
8.5516186 13.888334 -1.9967073 0
12.498276 13.540459 -1.9316862 0
12.577313 13.795372 -1.9570516 0
14.25898 13.725091 -1.7273107 0
-4.2942634 14.124713 -1.5466031 0
-3.6935115 14.163523 -1.7913818 0
-3.240339 14.398723 -1.8063474 0
7.3289914 14.42154 -1.9804115 0
7.7337856 14.178596 -1.9772488 0
8.0110149 14.015308 -1.9762335 0
12.411321 14.447274 -1.9968072 0
12.608066 14.22479 -1.9928004 0
-4.3553886 14.899364 -1.6264628 0
-2.7389398 14.578782 -1.8155431 0
-2.2470007 14.717066 -1.8221462 0
-1.7579211 14.859797 -1.8314526 0
-1.2763875 14.951627 -1.8366686 0
5.3272109 14.967524 -1.944852 0
5.7676649 14.875006 -1.953078 0
6.2504921 14.764091 -1.9627302 0
6.7453299 14.653975 -1.9749171 0
7.0792265 14.539072 -1.9796457 0
11.834723 14.813765 -1.9878527 0
12.153184 14.554518 -1.9878805 0
14.370704 14.994463 -1.8128395 0
14.638788 14.808867 -1.8175806 0
-4.3217053 15.124382 -1.6482048 0
-1.0231936 15.004712 -1.8407145 0
-0.74392295 15.046081 -1.8438611 0
-0.23631126 15.127595 -1.8518379 0
0.25650221 15.164226 -1.8563623 0
0.75344843 15.201348 -1.8629613 0
1.2570556 15.28034 -1.8766905 0
1.7410864 15.337454 -1.8894622 0
2.2461243 15.313483 -1.8945587 0
2.7569165 15.311647 -1.9044278 0
3.2581308 15.251954 -1.9091386 0
3.7679391 15.192038 -1.9160296 0
4.2628055 15.157211 -1.9274366 0
4.7379484 15.069568 -1.933774 0
5.0557179 15.013072 -1.939185 0
10.924957 15.448842 -1.9836715 0
11.24476 15.238867 -1.9855391 0
11.575817 15.041054 -1.9898039 0
14.414346 15.374307 -1.8395963 0
14.554242 15.125529 -1.8322462 0
15.352347 15.440167 -1.5192028 0
-4.2918835 15.747968 -1.7105038 0
10.283054 15.864244 -1.9820455 0
10.678407 15.610728 -1.9828751 0
14.482662 15.984818 -1.8829126 0
15.229328 15.641253 -1.5232024 0
-4.1239305 16.219934 -1.7539877 0
-3.9158211 16.466881 -1.7739525 0
9.2653389 16.423044 -1.9768887 0
9.7599506 16.165855 -1.9797691 0
10.029943 16.005329 -1.9801872 0
14.405505 16.150452 -1.8891878 0
-4.6496172 16.893032 -1.5287117 0
-3.6650286 16.552547 -1.7768445 0
-3.2613015 16.684729 -1.781834 0
-2.7600677 16.849125 -1.7895273 0
-2.3488297 16.958639 -1.7944053 0
7.3818293 16.973637 -1.9403619 0
7.7485294 16.876616 -1.946831 0
8.2432203 16.722965 -1.9545892 0
8.7525349 16.581121 -1.9656461 0
14.317337 16.811531 -1.9277687 0
14.513226 16.528872 -1.9202152 0
15.926723 16.967545 -1.6239306 0
-4.6074629 17.375145 -1.5684547 0
-2.0882442 17.023224 -1.797576 0
-1.7495339 17.115448 -1.8032786 0
-1.2519324 17.228373 -1.8105586 0
-0.74950421 17.305098 -1.8155433 0
-0.26619208 17.370995 -1.8209788 0
0.24816409 17.436291 -1.8278265 0
0.59983212 17.487024 -1.8339868 0
4.9175701 17.486004 -1.9040904 0
5.2319722 17.45669 -1.9104086 0
5.7444077 17.426863 -1.9235852 0
6.2422047 17.268217 -1.9249033 0
6.7340212 17.134165 -1.9299673 0
7.1284418 17.038628 -1.9362015 0
13.302573 17.394331 -1.911649 0
13.757037 17.200739 -1.9228051 0
14.037521 17.056156 -1.9284079 0
15.701264 17.311346 -1.6309063 0
-4.5596042 17.746843 -1.5988721 0
0.83947754 17.510813 -1.8375406 0
1.2492404 17.511961 -1.8402585 0
1.7423435 17.509329 -1.844393 0
2.2392716 17.517347 -1.8511295 0
2.7592115 17.66762 -1.8744509 0
3.2623014 17.639214 -1.8803973 0
3.7701998 17.617229 -1.888574 0
4.2506504 17.583834 -1.8963555 0
4.6673441 17.538235 -1.9024779 0
5.9124498 17.519806 -1.9383758 0
12.3462 17.914789 -1.899298 0
12.75315 17.679758 -1.9030554 0
13.051032 17.512718 -1.906619 0
16.100073 17.639013 -1.6666217 0
-4.5291963 18.343243 -1.6488123 0
11.419132 18.45875 -1.8947659 0
11.764933 18.249027 -1.8954631 0
12.113461 18.039528 -1.8968576 0
-4.3858333 18.729263 -1.6787359 0
10.478371 18.985893 -1.8930227 0
10.748034 18.848822 -1.8941557 0
11.156884 18.61351 -1.8944173 0
-4.1487846 19.17429 -1.712157 0
-3.7466643 19.341778 -1.7194859 0
-3.430758 19.482979 -1.7265553 0
9.750782 19.381845 -1.894025 0
10.222301 19.127213 -1.8932406 0
16.745918 19.410542 -1.7892815 0
17.125505 19.362101 -1.8041815 0
-3.1916444 19.552252 -1.7290536 0
-2.7513399 19.72377 -1.7381568 0
-2.4633758 19.819534 -1.7431148 0
-1.7881199 19.973116 -1.7502035 0
8.282855 19.955887 -1.88615 0
8.7302389 19.87837 -1.8952888 0
9.2528925 19.669825 -1.8976321 0
16.476467 19.958839 -1.8064137 0
16.532742 19.717001 -1.7959502 0
-1.2015253 20.103903 -1.7578152 0
-0.76755148 20.204502 -1.7647731 0
-0.46381903 20.26158 -1.768913 0
0.80154055 20.430883 -1.784659 0
6.4827385 20.468229 -1.8741971 0
6.7707996 20.381001 -1.8747636 0
7.2511816 20.237967 -1.8766376 0
7.7385068 20.109386 -1.8809518 0
8.0254602 20.017044 -1.8825641 0
15.443327 20.434429 -1.7877189 0
15.712272 20.268187 -1.7899511 0
16.217762 20.087162 -1.8019491 0
1.7480457 20.724695 -1.8154192 0
2.4418468 20.833561 -1.8309678 0
2.818795 20.780945 -1.8306192 0
15.266263 20.734371 -1.7972059 0
-4.6197701 21.235348 -1.5162964 0
14.399295 21.379211 -1.7990893 0
14.79255 21.173124 -1.8027865 0
15.063534 21.001465 -1.8039025 0
-4.1058865 21.78443 -1.5467801 0
-3.8693945 21.641354 -1.5339448 0
13.786391 21.895288 -1.8059486 0
14.203604 21.81271 -1.8168073 0
12.886263 22.404451 -1.8039722 0
13.264604 22.177668 -1.8037031 0
13.538462 22.006117 -1.8033442 0
11.909278 22.960197 -1.8052975 0
12.227509 22.789843 -1.8051779 0
12.612493 22.573418 -1.8048091 0
20.334974 22.773743 -1.5975724 0
20.636982 22.618319 -1.6021082 0
11.260897 23.344076 -1.8090445 0
11.660833 23.095171 -1.8057998 0
19.765121 23.253489 -1.5969095 0
20.110693 23.092766 -1.6023176 0
-4.0751805 23.5924 -1.670807 0
-3.7733729 23.803137 -1.6819283 0
-3.300534 23.931732 -1.6859673 0
10.267869 23.878225 -1.8142264 0
10.765928 23.608362 -1.8110774 0
18.82958 23.976227 -1.5951999 0
19.22084 23.777267 -1.5998405 0
19.557739 23.58626 -1.6032596 0
-3.0442674 24.000885 -1.6883857 0
-2.7543571 24.114588 -1.6938866 0
-2.2354751 24.242062 -1.6990286 0
-1.7216774 24.401707 -1.7072399 0
-1.4290603 24.498688 -1.7126609 0
6.0912442 24.471962 -1.7600954 0
9.3441162 24.40192 -1.8238249 0
9.7741232 24.16511 -1.8194482 0
17.805038 24.416016 -1.5811739 0
18.298771 24.211496 -1.5879985 0
18.595434 24.054937 -1.5909084 0
-1.2027041 24.554554 -1.7157303 0
-0.74613124 24.622042 -1.7191981 0
-0.24844879 24.681723 -1.7226592 0
0.25119546 24.742085 -1.7268913 0
0.75017434 24.795998 -1.7313557 0
1.2444794 24.850163 -1.7365376 0
1.7528051 24.918671 -1.7434467 0
2.2634759 24.953289 -1.7487348 0
2.7704775 24.947248 -1.7518641 0
3.2451124 24.961716 -1.7568399 0
3.5216267 24.963518 -1.7595372 0
6.3132091 24.892031 -1.7923926 0
6.7704868 24.914633 -1.8020421 0
7.2574334 24.866552 -1.8080412 0
7.7264423 24.744352 -1.8093433 0
8.2103262 24.667242 -1.8145984 0
8.7482862 24.620481 -1.8237531 0
9.0849361 24.519407 -1.8251083 0
17.441978 24.877136 -1.589757 0
17.628685 24.733671 -1.5892687 0
18.198612 24.553257 -1.5991775 0
3.7871032 25.18185 -1.7773392 0
4.2276483 25.17573 -1.7817664 0
4.7496123 25.16493 -1.7874399 0
5.2674007 25.118883 -1.7913462 0
5.7533727 25.090515 -1.7966942 0
6.074986 25.240065 -1.8119941 0
16.378136 25.842407 -1.600922 0
16.56389 25.665405 -1.59834 0
15.996933 26.191214 -1.6058764 0
16.118057 26.112106 -1.605667 0
15.45813 26.974167 -1.6268108 0
14.382373 27.379297 -1.6182976 0
14.736125 27.23609 -1.6204048 0
15.268084 27.232153 -1.6336775 0
13.343678 27.875185 -1.6171112 0
13.750526 27.723948 -1.6193442 0
14.14872 27.550186 -1.6206002 0
12.930342 28.470556 -1.6362313 0
13.107985 28.166697 -1.6256595 0
-4.5018115 28.50733 -1.509997 0
-4.4606862 28.829115 -1.5263258 0
12.350924 28.850538 -1.6421976 0
12.633875 28.644974 -1.6382411 0
-4.1992865 29.241505 -1.5456902 0
-3.8479719 29.343208 -1.5484638 0
11.971999 29.415623 -1.661876 0
12.153906 29.118 -1.6510948 0
-3.6054864 29.542118 -1.557204 0
-3.2322748 29.562799 -1.5560526 0
-2.7381506 29.741962 -1.5627935 0
-2.2493789 29.938122 -1.5709161 0
11.26736 29.920837 -1.6730759 0
11.704843 29.679432 -1.6695169 0
-2.2015886 30.030289 -1.5755216 0
-1.7392009 30.181957 -1.5818856 0
-1.27288 30.242001 -1.5838115 0
-0.76669651 30.397745 -1.5910829 0
-0.30054069 30.450893 -1.5934205 0
0.24951006 30.45183 -1.5934553 0
0.50280887 30.470236 -1.5945719 0
10.774504 30.194721 -1.6776816 0
-22.162735 30.921761 -1.9912784 0
-0.22410859 30.526398 -1.5973631 0
0.17076705 30.523512 -1.5971887 0
0.79077923 30.574911 -1.6003916 0
1.2673085 30.649221 -1.6051228 0
1.7489822 30.721537 -1.6101471 0
2.2356176 30.811718 -1.6165111 0
6.846755 30.725357 -1.6472218 0
9.7518988 30.952675 -1.698267 0
10.24766 30.791391 -1.6982321 0
10.756613 30.566111 -1.6956849 0
2.7556691 31.325373 -1.6455262 0
3.2514102 31.365353 -1.6500899 0
3.7219934 31.381552 -1.6536591 0
4.2518063 31.462646 -1.6613526 0
4.7449694 31.428095 -1.6632366 0
5.2336335 31.354792 -1.6634461 0
5.601263 31.441299 -1.6711917 0
6.7362847 31.351229 -1.6780304 0
7.280427 31.271481 -1.6801935 0
7.7625022 31.251034 -1.6850607 0
8.260253 31.073721 -1.6825486 0
8.7741184 31.150331 -1.6935393 0
9.2986221 31.283222 -1.7078688 0
9.7002974 31.064192 -1.703012 0
3.8616097 31.512917 -1.6613526 0
4.2648101 31.546154 -1.6658013 0
5.269155 31.556021 -1.6741748 0
5.8240881 31.567348 -1.6797748 0
6.183537 31.648422 -1.6874787 0
6.5702929 31.791782 -1.6988251 0
7.3540111 31.595087 -1.6975691 0
7.6957173 31.505415 -1.6971505 0
8.1323938 31.589432 -1.7069896 0
8.743329 31.51288 -1.7113858 0
22.122967 37.195988 -1.5096127 0
22.167259 37.673668 -1.5247591 0
22.10981 38.663624 -1.5536559 0
20.429241 39.476151 -1.5505149 0
20.756126 39.21315 -1.5476764 0
20.175093 39.748726 -1.5549471 0
19.467911 40.283348 -1.5607054 0
19.742081 40.099316 -1.559135 0
19.373671 40.73328 -1.5734555 0
19.130081 41.211376 -1.584949 0
18.790213 41.647663 -1.59386 0
18.452618 42.298203 -1.609844 0
18.663671 42.069958 -1.6055164 0
18.377277 42.849087 -1.6264561 0
4.2377625 43.431313 -1.5221765 0
18.156338 43.261181 -1.6366934 0
3.3692105 43.657608 -1.5274113 0
3.5698431 43.579548 -1.5252476 0
4.108079 43.516045 -1.5246892 0
17.968449 43.759842 -1.6502576 0
17.889215 44.357468 -1.6685449 0
10.001589 45.100327 -1.6115191 0
15.146671 45.415714 -1.6701504 0
10.257454 45.575657 -1.6296669 0
26.87859 -66.028053 -1.2435188 0
27.191496 -66.202568 -1.2484056 0
20.27088 -65.563538 -1.1970258 0
21.393013 -65.530037 -1.2024009 0
27.922134 -65.654419 -1.2444962 0
28.267342 -65.619659 -1.2463112 0
21.004684 -65.02961 -1.1919994 0
21.95816 -65.207809 -1.2001671 0
27.263952 -65.240105 -1.2333732 0
28.630077 -65.344353 -1.2444265 0
35.95853 -65.166183 -1.2983193 0
38.382801 -65.187996 -1.3196113 0
20.355797 -64.755676 -1.1840062 0
20.623877 -64.542839 -1.181877 0
21.789345 -64.707253 -1.1909522 0
24.41765 -64.549675 -1.2037973 0
36.201996 -64.870903 -1.295876 0
38.442616 -64.822815 -1.3146548 0
38.704498 -64.568787 -1.3131888 0
24.617596 -64.163124 -1.198736 0
24.889957 -63.690979 -1.1927671 0
25.4214 -63.588501 -1.1945125 0
25.712284 -63.734589 -1.198771 0
28.394382 -63.984119 -1.2210402 0
28.503115 -63.690456 -1.2171308 0
25.119925 -63.411469 -1.1896956 0
51.289745 -62.532078 -1.4108524 0
51.811852 -62.575893 -1.4172401 0
52.342957 -62.625813 -1.4238371 0
52.68874 -62.638599 -1.4278861 0
53.24612 -62.698875 -1.4349717 0
53.760868 -62.704033 -1.4408706 0
56.303074 -62.863773 -1.4722153 0
56.826645 -62.849808 -1.4781491 0
58.542786 -62.958424 -1.49979 0
46.620247 -62.319984 -1.3576577 0
47.034016 -62.259216 -1.361148 0
47.822136 -62.315033 -1.3702582 0
48.323952 -62.390305 -1.3766458 0
48.780464 -62.382065 -1.3814278 0
49.27066 -62.411552 -1.3871173 0
49.796051 -62.469402 -1.3936095 0
32.894104 -61.863949 -1.2221571 0
33.189114 -61.715164 -1.2222967 0
33.40815 -61.428581 -1.2197138 0
33.562115 -61.276199 -1.2186666 0
31.404549 -60.869888 -1.1947219 0
31.737339 -60.823288 -1.1966766 0
36.461338 -60.181919 -1.2273928 0
36.685535 -60.148609 -1.2289287 0
36.833134 -59.987957 -1.2278816 0
37.586372 -59.755165 -1.231372 0
38.3004 -59.842171 -1.2393303 0
38.567711 -59.846359 -1.2419132 0
40.635063 -59.557278 -1.2576554 0
27.372698 -59.235516 -1.1381761 0
27.769407 -59.08276 -1.1386881 0
37.704708 -59.320827 -1.2260665 0
4.5051618 -58.522057 -1.0236884 0
5.2729688 -58.935719 -1.0319957 0
28.873966 -58.625439 -1.1398517 0
29.053806 -58.527588 -1.139712 0
4.7593246 -58.237022 -1.0190809 0
5.0538292 -58.453136 -1.0232695 0
29.451565 -58.404602 -1.1408987 0
29.71962 -58.275299 -1.1410034 0
1.326852 -42.789509 -1.4932797 0
0.43989095 -35.539783 -1.2394906 0
0.3270402 -35.321125 -1.2318127 0
22.867352 -33.600143 -1.4176176 0
23.114355 -33.736443 -1.4264123 0
18.604816 -29.73851 -1.2232971 0
-0.26752707 -28.20015 -1.4754553 0
20.594473 -28.055489 -1.2136649 0
21.758514 -28.141884 -1.2405375 0
22.130703 -28.254948 -1.2516356 0
-0.048376657 -27.875877 -1.4583937 0
20.716856 -27.945391 -1.2131066 0
21.909462 -27.711849 -1.2319522 0
22.280064 -27.999569 -1.2478664 0
17.952078 -27.161823 -1.1352806 0
18.130505 -27.062302 -1.135839 0
22.592384 -27.247345 -1.2343602 0
-3.9127965 -26.391077 -1.3956952 0
-1.3911533 -26.247295 -1.3749703 0
-3.7199624 -25.910608 -1.3693179 0
-1.2854584 -25.716763 -1.3469181 0
22.739458 -25.683273 -1.196215 0
-1.292727 -25.08993 -1.3141558 0
22.697897 -25.399185 -1.1878393 0
-0.60287583 -24.140795 -1.263041 0
-0.41790915 -24.187368 -1.265274 0
19.862112 -24.403683 -1.0971006 0
-2.8614573 -23.578615 -1.2422463 0
-0.73865378 -23.644207 -1.237222 0
23.277212 -23.504427 -1.1534981 0
23.598488 -23.979313 -1.1731815 0
23.827978 -23.324656 -1.1627117 0
24.164473 -23.370386 -1.1722507 0
-2.8931384 -22.9508 -1.209798 0
22.314051 -22.31979 -1.1004509 0
18.431625 -21.883646 -1.4969479 0
18.361151 -21.387774 -1.4747576 0
22.948259 -21.122053 -1.0874684 0
23.140131 -21.426929 -1.0996133 0
-2.1299651 -20.793678 -1.4582824 0
19.364777 -20.540401 -1.4769206 0
22.866417 -20.522661 -1.0712749 0
23.765917 -20.80356 -1.1012886 0
18.746025 -20.1292 -1.4390295 0
19.422726 -20.485615 -1.4769206 0
22.579086 -20.26804 -1.0578735 0
23.268391 -20.111427 -1.0723219 0
23.774862 -20.103573 -1.0855838 0
17.91872 -19.666563 -1.3918223 0
18.39049 -19.750875 -1.4118147 0
23.344086 -19.928425 -1.0701581 0
-3.0722928 -19.110144 -1.0118634 0
20.729042 -19.129873 -1.4757693 0
18.851982 -18.572565 -1.3843907 0
19.772631 -18.647682 -1.4218632 0
20.38032 -18.904049 -1.4543117 0
20.610056 -18.607819 -1.4527065 0
18.755407 -18.133299 -1.3647124 0
20.609419 -18.319265 -1.4425882 0
18.749027 -17.961941 -1.3582227 0
23.760212 -17.863098 -1.0363754 0
23.313675 -17.419073 -1.0145981 0
-1.7063977 -16.757271 -1.4694458 0
-2.0357108 -16.029858 -1.4094827 0
-1.8676158 -16.102896 -1.4140729 0
24.950369 -16.436888 -1.0416801 0
25.125788 -16.292311 -1.0440533 0
18.268671 -15.772965 -1.2624031 0
18.570492 -15.65815 -1.2705076 0
25.276587 -15.824391 -1.0397258 0
25.652779 -15.680872 -1.0482413 0
18.323866 -15.061805 -1.2405715 0
18.67173 -15.204317 -1.2594125 0
19.021057 -15.049933 -1.2686236 0
18.809793 -14.743538 -1.2499919 0
19.113796 -14.788752 -1.2640181 0
-4.0304718 -14.128743 -1.0240251 0
-3.9899385 -14.152682 -1.0248622 0
-4.564796 -13.707508 -1.0069114 0
-4.3211412 -13.756992 -1.0049815 0
-2.0112011 -13.842014 -1.465071 0
-5.4600987 -13.304306 -1.0022609 0
-2.1481941 -13.188596 -1.3599437 0
-1.9647926 -13.233652 -1.4010994 0
-4.8343053 -12.781747 -1.1913608 0
-2.6788709 -12.63066 -1.1254246 0
-2.2862182 -12.765077 -1.2673317 0
16.840834 -12.652188 -1.2855517 0
17.102791 -12.59771 -1.4819995 0
19.719311 -12.644925 -1.2251498 0
-5.1939054 -12.232572 -1.1584741 0
-4.9748516 -12.334695 -1.1594038 0
-2.7738092 -12.238498 -1.1247336 0
-2.243052 -12.113114 -1.2897419 0
16.759523 -12.132947 -1.3240584 0
19.795216 -12.30602 -1.219044 0
-5.1004901 -11.808708 -1.1211715 0
-3.8275645 -11.671245 -1.2507923 0
-3.1232677 -11.84466 -1.0674835 0
-2.7724841 -11.707678 -1.1668415 0
-2.3617301 -11.684919 -1.3306301 0
16.48567 -11.528235 -1.0517433 0
16.59585 -11.74777 -1.276325 0
19.360321 -11.622739 -1.1809084 0
19.759304 -11.687407 -1.2006288 0
-4.5223775 -11.036057 -1.2484879 0
-3.8077531 -11.196921 -1.0305992 0
-3.2959223 -11.324506 -1.0277405 0
-2.7972579 -11.120345 -1.2001958 0
-2.4098463 -11.41067 -1.3801666 0
16.665926 -11.311058 -1.2036282 0
19.424864 -11.214003 -1.1729535 0
20.092152 -11.187099 -1.2026802 0
-4.7428813 -10.708241 -1.0204194 0
-4.3704824 -10.57375 -1.1974781 0
-3.1666527 -10.646287 -1.1839454 0
-2.7184334 -10.704546 -1.2279397 0
-2.4451888 -10.699532 -1.3417002 0
16.618507 -10.971644 -1.3891305 0
19.876226 -10.7888 -1.1827229 0
-4.4175701 -10.147582 -1.1581753 0
-3.0593731 -10.214429 -1.2080125 0
-2.7010429 -10.265111 -1.2344567 0
-2.460851 -10.261908 -1.4763483 0
19.725632 -10.239038 -1.1622421 0
20.123489 -10.089592 -1.1772449 0
-4.2599277 -9.7342348 -1.2289635 0
-3.7791514 -9.6987095 -1.1804812 0
-3.1682739 -9.7603712 -1.2124344 0
-2.6718905 -9.7181845 -1.3054258 0
-2.4841783 -9.8959465 -1.4271737 0
19.733755 -9.6663218 -1.1490883 0
20.271364 -9.7745399 -1.176931 0
-4.5187173 -9.4885445 -1.2845029 0
-3.8253579 -9.340601 -1.2695162 0
-2.692096 -9.2065992 -1.3413968 0
19.640886 -9.0964823 -1.1318523 0
20.31452 -9.0266199 -1.1624862 0
20.584904 -9.2244873 -1.1796525 0
-4.6162972 -8.6785831 -1.3747519 0
-4.2474008 -8.7431316 -1.2216504 0
-3.5496099 -8.9135523 -1.3416288 0
-3.269383 -8.5339384 -1.1639187 0
-2.7664118 -8.5611372 -1.3288163 0
16.933697 -8.5766125 -1.3239779 0
20.341242 -8.9264889 -1.1616489 0
-5.9118757 -8.1970043 -1.3427675 0
-5.0535378 -8.1673508 -1.173358 0
-4.8884296 -8.0803509 -1.4041367 0
-4.1253824 -8.179656 -1.223447 0
-3.7076476 -8.1781588 -1.25506 0
-3.092773 -8.4719114 -1.2129785 0
-2.8520846 -8.2623739 -1.3098506 0
17.039259 -8.4012251 -1.3250941 0
-6.2421913 -7.941802 -1.4128852 0
-5.6502604 -7.7350659 -1.3864465 0
-5.1422529 -7.5357027 -1.4373199 0
-4.7576303 -7.8231974 -1.2811475 0
-4.442471 -7.7658119 -1.3027819 0
-3.699224 -7.726469 -1.3022147 0
-3.1691587 -7.782372 -1.4195526 0
80.711884 -7.588172 -1.4142035 0
-5.7704697 -7.2058039 -1.4365156 0
-5.1040421 -7.4252987 -1.4194863 0
-4.2631907 -7.225029 -1.2032455 0
-3.6828647 -7.3238196 -1.3259944 0
-3.0748866 -7.0797238 -1.4331397 0
-2.9705696 -7.2113423 -1.3667269 0
16.149252 -7.1698833 -1.2322181 0
17.768816 -7.1418719 -1.3357667 0
80.629097 -7.1975617 -1.4121441 0
-6.188098 -6.7210164 -1.1158357 0
-5.6685185 -6.6516395 -1.129813 0
-3.645813 -6.7486305 -1.2521651 0
-3.172509 -6.7939286 -1.3838364 0
-2.7780979 -6.7575936 -1.1933302 0
16.203787 -6.9546437 -1.2296672 0
17.735153 -6.6392565 -1.3209087 0
18.272982 -6.5200295 -1.1268311 0
-6.2286243 -6.1577363 -1.1320887 0
-5.866714 -6.2574372 -1.2900871 0
-5.4530764 -6.305532 -1.017731 0
-4.1873322 -6.332931 -1.349901 0
-3.8212991 -6.3833485 -1.3437698 0
-3.2619047 -6.1871161 -1.3890214 0
17.877937 -6.4616857 -1.3259312 0
18.277664 -6.226171 -1.0470535 0
-6.2953339 -5.9835386 -1.0605071 0
-5.8342676 -5.8406906 -1.1818007 0
-4.5753078 -5.8477602 -1.3275777 0
-4.3757324 -5.8403587 -1.4076467 0
-3.7022548 -5.6799669 -1.1919967 0
-3.3201423 -5.7543135 -1.3778242 0
16.216557 -5.5710821 -1.4959412 0
17.27766 -5.8516455 -1.2722186 0
18.452391 -5.9683075 -1.0138521 0
18.629658 -5.731904 -1.0872351 0
-4.547966 -5.197145 -1.1859728 0
-4.2990375 -5.1753383 -1.3096226 0
-3.9380479 -5.2757111 -1.3446794 0
-3.3773277 -5.2211637 -1.3789375 0
15.841958 -5.1429706 -1.3557047 0
16.298044 -5.0387311 -1.4882715 0
18.392498 -5.1042595 -1.331372 0
18.826576 -5.3441076 -1.1589023 0
19.09239 -5.0866055 -1.0329722 0
-5.7644763 -4.6380949 -1.0331099 0
-5.0029035 -4.6923232 -1.2009507 0
-4.825079 -4.738699 -1.2036326 0
-4.212944 -4.736527 -1.1925737 0
-3.5068991 -4.5439792 -1.4191138 0
-3.4387219 -4.7927518 -1.3765771 0
15.805716 -4.6879716 -1.4382092 0
16.073792 -4.7040634 -1.461079 0
18.827335 -4.6102972 -1.0133288 0
19.196741 -4.8905106 -1.0356762 0
-6.528635 -4.0227947 -1.4354769 0
-6.248971 -4.0251513 -1.2360016 0
-5.6938534 -4.3197231 -1.1027758 0
-5.3433514 -4.3049054 -1.1334757 0
-4.5860639 -4.2990046 -1.2806797 0
-4.3836951 -4.3359485 -1.294432 0
-3.5431993 -4.1840267 -1.3732613 0
-3.4765625 -4.3762193 -1.3636787 0
15.679007 -4.1633158 -1.3585612 0
18.292938 -4.086195 -1.3073293 0
18.814575 -4.1993837 -1.0748227 0
19.031977 -4.0084314 -1.0167829 0
-6.5590577 -3.8210762 -1.2190068 0
-6.3113651 -3.847712 -1.2356051 0
-5.9080482 -3.6753061 -1.0944155 0
-5.4370484 -3.8080578 -1.0437309 0
-3.5718911 -3.7971616 -1.3217983 0
15.722858 -3.894387 -1.2711804 0
18.473717 -3.8867345 -1.3167231 0
19.140617 -3.9372225 -1.0215979 0
-5.7899098 -3.2070634 -1.1585807 0
-5.4549961 -3.0554676 -1.0939835 0
-4.9569283 -3.2229478 -1.3780591 0
-3.6480379 -3.3894351 -1.2296332 0
16.288488 -3.0542951 -1.3000361 0
-7.5893922 -2.5704317 -1.2614876 0
-5.804512 -2.6981316 -1.0061865 0
-5.1008482 -2.9843087 -1.033554 0
-4.5618267 -2.7084825 -1.1083139 0
-4.3940759 -2.6532021 -1.1822785 0
-3.779882 -2.5885754 -1.2146747 0
15.885015 -2.7145863 -1.2995068 0
16.143839 -2.8996983 -1.1435876 0
-7.2095242 -2.4047446 -1.1960979 0
-5.3087268 -2.2753773 -1.1135613 0
-4.6267815 -2.2637985 -1.1516734 0
-4.26475 -2.3327346 -1.1762176 0
-3.8113911 -2.1931388 -1.1738704 0
15.895826 -2.3000531 -1.2603015 0
16.027702 -2.0688357 -1.268234 0
-8.2572117 -1.6940881 -1.0290647 0
-6.1619105 -1.9404377 -1.0155725 0
-4.6498194 -1.6831666 -1.1841825 0
-4.2916799 -1.7944853 -1.1358837 0
-3.9143288 -1.8314698 -1.1475518 0
15.462948 -1.555035 -1.3554461 0
15.81192 -1.7639948 -1.3877519 0
16.213959 -1.7935209 -1.1981086 0
-7.9114237 -1.2583995 -1.2611747 0
-6.7215433 -1.0414152 -1.3127658 0
-4.6478982 -1.1842963 -1.1602668 0
-4.2939787 -1.2112786 -1.1248727 0
-3.8579371 -1.0862436 -1.0647461 0
15.416715 -1.0030609 -1.3474277 0
15.81125 -1.198719 -1.2436408 0
16.269302 -1.3145446 -1.2457014 0
16.501869 -1.4311359 -1.1548882 0
-7.5347815 -0.75052345 -1.3266722 0
-7.1530423 -0.71597517 -1.1758217 0
-6.7498727 -0.85505152 -1.1912265 0
-6.3347311 -0.6632024 -1.0011806 0
-5.7547808 -0.92067629 -1.1234834 0
-4.6376543 -0.74042994 -1.1224042 0
-4.3766079 -0.78861576 -1.1469467 0
14.025843 -0.57938987 -1.3471911 0
15.37739 -0.79433155 -1.2656124 0
15.849136 -0.90493804 -1.1761801 0
-5.3184729 -0.092077784 -1.2651265 0
-4.7593508 -0.27349973 -1.1361907 0
-4.2472939 -0.30991536 -1.1166033 0
-3.9211154 -0.1032668 -1.0405099 0
14.039085 -0.47240517 -1.4713426 0
14.94167 -0.23171578 -1.1577628 0
15.024495 -0.43844301 -1.3108224 0
-5.3360157 0.16530673 -1.258006 0
-4.6840501 0.22310126 -1.1390072 0
-4.255549 0.25925508 -1.0914555 0
-3.9428484 0.28404704 -1.0521134 0
14.941162 0.26038012 -1.1725059 0
15.059586 0.12036267 -1.181427 0
-6.1372042 0.95885408 -1.2538055 0
-5.0920296 0.85706329 -1.1502676 0
-4.7555232 0.89707297 -1.1496191 0
-4.1603165 0.75244743 -1.1030982 0
14.843029 0.73865867 -1.1659812 0
-6.5581017 1.3531054 -1.0529604 0
-6.1712055 1.0045823 -1.0939835 0
-5.0911551 1.3239398 -1.060948 0
-4.7966084 1.3022847 -1.1486113 0
-4.2851501 1.2468266 -1.1539662 0
14.838028 1.1521142 -1.1976005 0
15.267838 1.3884161 -1.1459229 0
-7.0426579 1.5111595 -1.1332111 0
