# .PCD v0.7 - Point Cloud Data file format
VERSION 0.7
FIELDS x y z intensity
SIZE 4 4 4 4
TYPE F F F F
COUNT 1 1 1 1
WIDTH 1454
HEIGHT 1
VIEWPOINT 0 0 0 1 0 0 0
POINTS 1454
DATA ascii
-8.8486691 6.1886787 0.56338608 0
-7.7544746 6.2536054 0.67230636 0
-6.6472368 6.2287889 0.7927686 0
-6.4273086 6.0963135 0.61608917 0
-5.6041956 6.1611047 0.64069235 0
-5.1624136 6.1184297 0.75175351 0
-4.7110467 6.1721849 0.69632071 0
-4.1966734 6.1667767 0.55553424 0
-3.8957703 6.2683587 0.7175923 0
-8.2555141 6.761415 0.66773039 0
-7.7992897 6.6977863 0.73652405 0
-7.2599363 6.702848 0.75700653 0
-6.4440327 6.9817171 0.66101229 0
-5.7690449 6.715848 0.65384561 0
-5.3568058 6.8286185 0.83969021 0
-4.7087431 6.7095628 0.71316648 0
-4.1563067 6.8492546 0.8568362 0
-3.8245575 6.8072066 0.73578089 0
-3.4103532 6.7957749 0.74023366 0
-2.8363051 6.6343045 0.83642691 0
-8.5690756 7.1104574 0.67831039 0
-6.5711384 7.2339783 0.59333616 0
-6.2615724 7.3098488 0.50200653 0
-5.6959281 7.2594161 0.74708068 0
-5.2375937 7.1466904 0.8682062 0
-4.6976333 7.2110066 0.79883081 0
-4.2276163 7.2701535 0.73113233 0
-3.8032603 7.123333 0.74737298 0
-3.4355226 7.0622301 0.95838052 0
-28.019121 7.9740496 0.50765562 0
-27.779709 7.7219987 0.50244313 0
-6.2975559 7.7093349 0.51917267 0
-5.5924172 7.6596732 0.90843248 0
-5.2805109 7.6571918 0.97262573 0
-4.8286386 7.737442 0.89935112 0
-4.4325428 7.5544987 0.60911357 0
-3.7665172 7.7453699 0.77142608 0
-3.4287302 7.6389937 0.687002 0
19.535791 7.8267641 0.73323846 0
-27.99279 8.0659933 0.50765562 0
-5.9320807 8.2551651 0.88515371 0
-4.7718525 8.2008743 0.99218416 0
-4.2697001 8.3730335 0.93764192 0
-3.9532766 8.2332697 0.76647669 0
20.091677 8.2664862 0.75700498 0
-5.001967 8.5788565 0.51791662 0
-4.1522436 8.6564751 0.66798794 0
-3.9150605 8.5772047 0.9859125 0
-27.650053 9.3312693 0.50853986 0
-27.389502 9.182435 0.50339723 0
24.206814 9.3514366 0.90452516 0
-27.820892 9.6641703 0.51324034 0
-4.0478282 9.5975866 0.81658155 0
-3.9685178 9.6159372 0.81550652 0
-29.596659 10.438078 0.54695845 0
-29.657309 10.61371 0.54898286 0
-29.393597 10.673143 0.54500377 0
-30.181461 11.121147 0.56060618 0
-5.6281371 11.906994 0.68769443 0
-5.2274504 11.912105 0.67923701 0
-4.6785278 11.86222 0.75938499 0
-4.411274 11.978411 0.82554591 0
-5.0840988 12.191992 0.78367788 0
-4.6658411 12.029319 0.67366844 0
-4.3237896 12.111113 0.75534177 0
-5.9736753 12.516741 0.72432959 0
24.200708 12.828105 0.95482236 0
24.5007 12.697199 0.96196967 0
16.24301 13.437106 0.73447156 0
24.039833 13.126359 0.95480371 0
-5.0385327 13.991533 0.51762933 0
-4.7302699 13.836033 0.61441272 0
16.193022 13.545227 0.73554182 0
-5.0106759 14.328523 0.79299438 0
-4.8762827 14.079231 0.7783404 0
24.551291 16.310829 0.51365918 0
19.551237 16.981514 0.90264052 0
23.710205 16.884157 0.50723678 0
24.2108 16.84944 0.51403147 0
19.479982 17.081354 0.90305936 0
23.88003 17.343525 0.5143224 0
-5.3170185 17.953968 0.65220177 0
23.795706 17.744106 0.51728928 0
24.069992 17.878775 0.52252507 0
-5.3124251 18.351025 0.66546357 0
23.665289 18.093449 0.51913929 0
-4.6514349 19.627108 0.70270139 0
-4.3949203 20.374857 0.72618872 0
-4.2388644 20.737036 0.73746127 0
-3.9661705 20.717052 0.73491359 0
15.761776 20.913729 0.91283125 0
16.313173 20.961378 0.9258604 0
23.675224 20.724724 0.54838949 0
24.296461 20.743774 0.55680156 0
-4.3298922 21.185007 0.75341034 0
15.419541 21.345177 0.91785681 0
15.581711 21.15126 0.91572791 0
16.124451 21.052439 0.92434806 0
23.748898 21.212357 0.55498654 0
23.425659 21.816507 0.55791855 0
23.642681 21.680084 0.55908787 0
13.791288 23.36734 0.94584614 0
-3.7540379 25.21875 0.88868082 0
-3.4181194 25.092999 0.88267809 0
24.434849 25.101711 0.61062485 0
24.502388 25.013401 0.61034554 0
-4.5885563 25.701839 0.91003925 0
-4.2564692 25.580364 0.90389693 0
-3.899163 25.641594 0.90403658 0
-4.5509067 26.155016 0.92539507 0
-4.2259169 26.153484 0.92347556 0
-3.8201182 26.231302 0.92399901 0
-3.4690428 26.082445 0.91715872 0
23.339485 26.409462 0.61435962 0
23.817688 26.360163 0.61928123 0
24.330814 26.34903 0.62518013 0
-3.7974324 26.658648 0.93865687 0
-3.3480105 26.765106 0.9402622 0
23.403667 26.810869 0.62036324 0
23.94182 26.834726 0.62689042 0
-3.5160577 27.084248 0.95205826 0
23.320061 27.355713 0.62661123 0
23.608469 27.303181 0.62919414 0
23.731163 27.619833 0.63477898 0
15.88961 29.463524 0.58346891 0
15.800746 29.520344 0.58360845 0
23.952076 30.415312 0.67491949 0
24.220043 30.26355 0.67575717 0
40.248821 31.452127 0.89077085 0
14.077671 31.920326 0.60811162 0
40.342724 31.827858 0.89611125 0
35.558846 33.317516 0.84972274 0
35.642464 33.677986 0.85509813 0
35.758812 34.1912 0.86274225 0
23.865208 34.917175 0.73739904 0
22.940821 35.189514 0.73239607 0
23.818747 35.319168 0.74275112 0
24.403618 35.381897 0.74940634 0
24.723843 35.398155 0.75282705 0
21.831953 35.624195 0.72846347 0
22.273241 35.719021 0.73392606 0
22.907379 35.85844 0.74189019 0
23.653931 35.666843 0.74619508 0
16.958109 36.732426 0.70535648 0
17.112265 36.762352 0.70696205 0
-3.7132902 38.232162 0.66964883 0
-4.5957284 41.906425 0.73502553 0
-4.2629085 47.799122 0.83680797 0
-4.1371207 48.087154 0.84162486 0
-3.7059238 48.309338 0.84488267 0
-3.2520649 48.284565 0.84388202 0
-4.0299087 48.537716 0.84930384 0
-2.8944864 48.634605 0.84958315 0
-2.6187723 49.20694 0.85928667 0
-2.4019246 49.358212 0.86173004 0
-1.6142834 56.854504 0.99195993 0
-1.8827358 57.200451 0.99813801 0
-1.3937211 57.262463 0.99897569 0
-1.1772046 -68.983589 1.2034482 0
-0.7467286 -68.866722 1.2013073 0
-0.21250205 -68.553284 1.1957691 0
0.11044616 -68.473625 1.1943729 0
-2.3055065 -61.805664 1.0787332 0
-1.6065667 -60.725639 1.0595006 0
-1.2264689 -60.758514 1.0599196 0
-1.4055933 -60.254578 1.0511934 0
12.351039 -57.691803 1.0289938 0
12.709309 -57.642601 1.0294826 0
46.321442 -57.745678 1.2913384 0
46.785809 -57.586971 1.2942704 0
13.094819 -57.248665 1.0242468 0
47.006981 -57.489262 1.2953874 0
13.102082 -56.463097 1.0109131 0
57.008343 -45.636635 1.2738162 0
57.667309 -45.572693 1.2821236 0
58.042034 -45.588223 1.2874291 0
57.117008 -45.42992 1.2730483 0
37.720375 -44.692982 1.0199884 0
37.835602 -44.262527 1.0155672 0
49.776196 -44.034077 1.159189 0
50.148537 -44.083485 1.164634 0
50.794136 -44.235294 1.1748612 0
51.395859 -44.344173 1.1840411 0
51.820297 -44.427212 1.1906031 0
37.9412 -43.701027 1.0093424 0
47.295479 -43.576927 1.121701 0
47.866409 -43.68821 1.1303574 0
48.222607 -43.736496 1.1355234 0
48.766953 -43.819763 1.1435513 0
49.401646 -43.980114 1.1536738 0
38.036438 -43.259331 1.0046303 0
44.76289 -43.078415 1.0835501 0
45.284225 -43.178944 1.0913339 0
45.677986 -43.28133 1.0975469 0
46.22998 -43.392487 1.1058892 0
46.759323 -43.490963 1.1138127 0
38.123207 -42.947956 1.0015587 0
41.957058 -42.56974 1.0424672 0
42.264469 -42.614498 1.0467954 0
42.749222 -42.698769 1.0538112 0
43.240147 -42.797886 1.0611063 0
43.70488 -42.853172 1.0675638 0
44.243237 -42.974453 1.0757662 0
69.708221 -42.548553 1.4246749 0
39.36335 -42.058258 1.0046651 0
39.812321 -42.138493 1.0110528 0
40.240448 -42.247696 1.01758 0
40.702305 -42.334457 1.0242468 0
41.156357 -42.412918 1.0307391 0
41.630486 -42.492538 1.0375106 0
69.356873 -41.894093 1.4135053 0
69.590797 -41.598145 1.414343 0
11.286551 -41.322357 1.494187 0
11.555389 -41.059116 1.4878353 0
69.779007 -41.265747 1.4142034 0
11.370298 -40.870148 1.4797387 0
11.890841 -40.630066 1.4766675 0
12.230719 -40.852551 1.4874864 0
13.385714 -40.768761 1.4967697 0
13.599702 -40.558765 1.4921629 0
69.903801 -40.896011 1.4128071 0
13.89082 -40.381737 1.4895804 0
14.087257 -40.144203 1.4839964 0
61.19416 -40.148357 1.2766784 0
14.352726 -39.902012 1.4791337 0
14.860989 -39.945301 1.4866488 0
15.651958 -39.966423 1.4971884 0
16.401226 -39.571754 1.4941871 0
61.748898 -39.974724 1.2831359 0
52.427792 -39.359871 1.1434817 0
52.23164 -38.706097 1.1339177 0
52.488697 -38.397766 1.1343365 0
52.728931 -38.193333 1.135628 0
53.108223 -38.087891 1.1399214 0
44.462452 -37.911743 1.0190809 0
44.772305 -37.700451 1.0208262 0
53.201553 -37.902287 1.1393628 0
44.979275 -37.403549 1.0202676 0
-2.616744 -33.108681 1.158105 0
-2.3019929 -33.011833 1.153917 0
-3.1091447 -32.8372 1.1501479 0
-2.8451247 -32.745567 1.1461344 0
-2.2849987 -32.816269 1.1470766 0
-3.0406723 -24.490269 1.290814 0
-2.8082931 -24.495773 1.2896626 0
-3.8327336 -23.630516 1.2520854 0
-3.1791925 -23.789751 1.2553303 0
-4.1524277 -22.687685 1.2062391 0
-3.5262368 -22.858074 1.2095886 0
-3.3144271 -22.911312 1.2107191 0
-4.0031796 -22.26819 1.1832113 0
-3.8417284 -22.373484 1.1871887 0
-4.3202257 -21.777348 1.1610209 0
-4.1546764 -21.366926 1.1382548 0
-3.9754741 -21.363644 1.1363183 0
55.785233 -20.756262 1.0381156 0
56.296917 -20.551983 1.0452595 0
-26.272909 -17.810501 1.1067328 0
-25.614534 -17.256887 1.0768589 0
-3.5935984 -17.37611 1.2374102 0
-4.2268248 -16.860422 1.2121506 0
-27.181238 -14.585547 1.0755327 0
39.632725 -13.648952 1.4621028 0
-27.079708 -13.227861 1.0507541 0
-26.885775 -13.241984 1.044891 0
39.712685 -13.263913 1.4604276 0
23.06769 -12.56574 1.3741329 0
39.769783 -12.805099 1.4573332 0
-24.165047 -12.352077 1.4197699 0
-23.60614 -12.207294 1.3902524 0
23.135916 -12.419804 1.3736444 0
39.894867 -12.298386 1.4561815 0
39.969948 -11.849042 1.4541458 0
40.002693 -11.586169 1.4526566 0
-3.5112159 -11.185387 1.0214653 0
40.052841 -11.333069 1.4519123 0
-27.389851 -10.810831 1.0266036 0
-26.001228 -10.575603 1.468547 0
-25.917585 -10.632483 1.4656162 0
-3.6960258 -10.978018 1.4163655 0
-26.172588 -10.265066 1.4708499 0
-25.864771 -10.238975 1.4553581 0
-4.3354073 -10.249746 1.3605494 0
-3.7542071 -10.250767 1.334713 0
-3.4382939 -10.08954 1.161916 0
-4.184875 -9.5494223 1.458534 0
-3.6441114 -9.9051323 1.2901089 0
-3.1646764 -9.7058926 1.0856006 0
-2.8429372 -9.6641331 1.4089885 0
-28.254412 -9.2154427 1.0361428 0
-4.0111394 -9.3219423 1.2401423 0
-3.9094517 -9.2346878 1.3727754 0
-3.2853627 -9.2875404 1.2225296 0
-2.8792553 -9.2182903 1.0949985 0
17.612032 -9.1018934 1.0364612 0
-28.175854 -8.9993105 1.0312103 0
-4.6673937 -8.6364222 1.3730818 0
-4.241302 -8.709383 1.2704146 0
-3.7677667 -8.7063103 1.3074611 0
-3.3082335 -8.7244921 1.3609648 0
-2.7200372 -8.7242374 1.3055732 0
-2.400795 -8.7258682 1.2643498 0
16.870123 -8.5169001 1.3181183 0
17.129759 -8.685339 1.0040131 0
-4.2413969 -8.4026737 1.4331276 0
-3.6866837 -8.1436529 1.2508302 0
-3.233129 -8.3378773 1.3017852 0
-2.9605656 -8.1937618 1.2795004 0
16.827206 -8.2388372 1.3067977 0
-7.3721557 -7.5177174 1.3802856 0
-4.6499639 -7.5964766 1.3583305 0
-4.1939349 -7.635591 1.1960695 0
-3.7075341 -7.768487 1.2039778 0
16.385517 -7.5569239 1.2584068 0
16.692347 -7.7441292 1.2834076 0
82.617096 -7.8520908 1.4477469 0
-7.5223117 -7.0987225 1.4468435 0
-7.1685967 -7.283587 1.3580244 0
-6.8833423 -7.0624199 1.1613081 0
-4.1382256 -7.3649735 1.2841773 0
-3.9042392 -7.2732444 1.2120527 0
16.631094 -7.3283501 1.267503 0
82.635361 -7.4610906 1.4474328 0
-7.7163391 -6.7190127 1.2503794 0
-7.2080746 -6.8204575 1.1732984 0
-6.7328696 -6.8356295 1.2747339 0
-6.2076359 -6.8393106 1.2095683 0
-5.7031054 -6.6536894 1.3803778 0
-5.3228717 -6.5264564 1.1768478 0
-4.7579923 -6.7455974 1.3726805 0
-4.2299161 -6.5747771 1.1511146 0
-3.8110256 -6.8687415 1.329987 0
-3.4126284 -6.5349679 1.4236895 0
16.567747 -6.6929436 1.2461296 0
-7.305861 -6.426084 1.3026875 0
-6.6221414 -6.3086805 1.2785804 0
-6.4241228 -6.2480483 1.188944 0
-5.5915842 -6.2173367 1.3914533 0
-5.3296061 -6.3347635 1.3259264 0
-4.8638082 -6.2455931 1.387449 0
-4.1785665 -6.1876931 1.1189222 0
-3.8314846 -6.2916598 1.1063954 0
14.547823 -6.1956086 1.2407484 0
-6.2780156 -5.7319427 1.388986 0
-5.2387547 -5.7385397 1.2104282 0
-4.8572145 -5.7107506 1.2965144 0
-4.2676282 -5.8041534 1.1518661 0
-3.9770031 -5.7990398 1.1060959 0
-8.6074848 -5.3092942 1.4145554 0
-8.0621357 -5.0087442 1.3271548 0
-7.6196136 -5.0457382 1.4398229 0
-6.1213789 -5.3396044 1.2473954 0
-5.9237151 -5.2663612 1.2357024 0
-5.0232706 -5.3665333 1.0917283 0
-4.8258505 -5.2791386 1.1953475 0
-4.0467119 -5.3221803 1.1112144 0
-3.9354541 -5.3564863 1.2141017 0
-7.0187244 -4.7259622 1.0735922 0
-6.9408402 -4.671905 1.2483767 0
-6.0880408 -4.833961 1.2130636 0
-5.8889551 -4.8462768 1.2917097 0
24.272377 -4.6472759 1.2926562 0
33.634621 -4.5830874 1.1837211 0
-7.0943604 -4.1847486 1.1897426 0
-6.8893509 -4.3328633 1.3636675 0
20.344006 -4.3200941 1.0874364 0
24.466066 -4.3817711 1.300095 0
24.670303 -4.1792378 1.3088175 0
25.064541 -4.0480871 1.3280772 0
33.781399 -4.2323179 1.1872251 0
34.659569 -4.0111465 1.216736 0
14.267295 -3.5811217 1.1723807 0
25.088032 -3.7715919 1.3270724 0
34.343784 -3.815356 1.2050098 0
83.120445 -3.8024046 1.4515516 0
-4.1093102 -3.0831206 1.2058822 0
14.325566 -3.4508705 1.1301826 0
34.098038 -3.3605757 1.1948191 0
83.182404 -3.2882724 1.4522495 0
-8.2057447 -2.5344071 1.2002288 0
-7.0315189 -2.5134301 1.0426849 0
-6.7368393 -2.6292818 1.17682 0
-6.2508168 -2.5533381 1.3106302 0
-4.1728449 -2.9880216 1.1872342 0
83.245117 -2.7749171 1.4530176 0
-7.5252671 -2.1725271 1.1866674 0
-7.1126671 -2.2387285 1.1927842 0
-6.7497587 -2.2706156 1.2847024 0
-6.333158 -2.4167688 1.3198454 0
-5.824872 -2.2129991 1.2686697 0
-7.0953593 -1.7753288 1.3026016 0
-6.7762084 -1.725276 1.2911049 0
-6.2491555 -1.948885 1.3233813 0
-5.7669492 -1.9402866 1.2223874 0
-5.0772667 -1.6610647 1.3199258 0
16.267597 -1.5859643 1.3679345 0
16.549923 -1.6059346 1.1593527 0
83.375244 -1.738029 1.4547977 0
-7.3169456 -1.4021839 1.1250523 0
-6.6332827 -1.285292 1.1828914 0
-6.3068771 -1.2232045 1.4329344 0
-5.5753121 -1.1881958 1.2014524 0
-5.0154991 -1.1919169 1.2922794 0
-4.9010763 -1.2277179 1.1553487 0
-4.3506274 -1.1916065 1.0751798 0
16.213692 -1.2431668 1.2824243 0
16.537247 -1.2934631 1.1565623 0
83.440376 -1.222313 1.455775 0
-6.056839 -0.56562084 1.1730938 0
-5.7859898 -0.68503594 1.3551347 0
-5.1845503 -0.71207094 1.166514 0
-4.7266536 -0.76502925 1.0785201 0
-4.3731008 -0.77503473 1.095763 0
16.134178 -0.77379769 1.2592443 0
25.172352 -0.6829589 1.3171914 0
83.391327 -0.82854432 1.4548326 0
-6.1362119 -0.1402681 1.3616062 0
-5.8248281 -0.19210549 1.2326894 0
-5.2823691 -0.35387659 1.1414896 0
-4.6808133 -0.28644913 1.151251 0
-4.3704572 -0.21932641 1.0349909 0
83.603394 -0.05730661 1.4584627 0
-6.9811087 0.33358684 1.4753414 0
-5.1206722 0.23280406 1.1837515 0
-4.6992278 0.22527355 1.1047256 0
-4.3498139 0.025632778 1.0885106 0
83.656616 0.33693364 1.4594052 0
-6.7596149 0.88847053 1.0722017 0
-6.3269553 0.65488589 1.1130848 0
-5.7143183 0.5459342 1.0036865 0
-5.1274915 0.7480368 1.2725034 0
-4.828795 0.65205228 1.141088 0
-4.4428763 0.78837818 1.0306357 0
83.682846 0.86284769 1.4599288 0
-6.1905231 1.3954545 1.328455 0
-5.9021163 1.3296196 1.2565545 0
-7.3213739 1.834744 1.4577807 0
-6.7492404 1.8522313 1.300493 0
-6.2925491 1.6631109 1.3105201 0
-7.5652075 2.191262 1.1001635 0
-7.3189421 2.1274829 1.259706 0
-6.6227903 2.0995278 1.2002885 0
-6.3020372 2.1385374 1.3161789 0
20.171862 2.6451592 1.4192653 0
-8.1035728 4.3702393 1.1892769 0
-7.8737197 4.4434381 1.3553411 0
-6.9281998 4.4558215 1.1514906 0
-5.5124664 4.2773728 1.4728464 0
-5.3791175 4.4388423 1.4304161 0
-7.6438737 4.69592 1.2951223 0
-7.3870249 4.6344843 1.1312332 0
-6.8508701 4.6830683 1.2572329 0
-6.2942314 4.7554569 1.280117 0
-5.6236558 4.9327664 1.1919265 0
-5.3372035 4.7351155 1.3775035 0
-4.9246488 4.6638002 1.349612 0
16.141584 4.8022552 1.4264437 0
-9.1285782 5.3848038 1.4827502 0
-8.0748739 5.2868619 1.2915357 0
-7.6271386 5.3083158 1.2762051 0
-7.2920027 5.1183486 1.2452276 0
-6.9913116 5.4719148 1.3985242 0
-6.4458852 5.1231794 1.4433635 0
-5.7268066 5.1922617 1.2052501 0
-5.4806705 5.0810337 1.3093073 0
-4.9018502 5.3065934 1.2664462 0
15.777369 5.2912974 1.4517158 0
16.165302 5.2274346 1.2116593 0
-7.7784252 5.9488087 1.0241699 0
-7.2708993 5.7599487 1.330265 0
-6.0634146 5.5180612 1.4371123 0
-5.560173 5.5791941 1.1002468 0
-5.1597548 5.7044315 1.2067858 0
-4.7660909 5.907517 1.3413858 0
-3.7259808 5.9734674 1.2329019 0
15.700163 5.7980757 1.4601105 0
16.284981 5.7949271 1.2600136 0
-7.8044553 6.2617292 1.1846465 0
-7.3346214 6.1511612 1.2959446 0
-6.7808657 6.3395519 1.1338724 0
-5.1940575 6.2424893 1.2243575 0
-4.7151256 6.0944896 1.2764031 0
-4.3258371 6.403975 1.217852 0
-3.7831795 6.3700132 1.2554591 0
15.648616 6.1005816 1.4054081 0
16.256084 6.0742855 1.2101352 0
84.43187 6.4679656 1.4772415 0
-8.2154427 6.7557845 1.1128796 0
-7.3081141 6.7062154 1.125767 0
-6.5600896 6.8434873 1.4938449 0
-5.5798597 6.648098 1.2737565 0
-5.1859355 6.838347 1.274784 0
-4.9939685 6.6903448 1.3146753 0
-4.1481471 6.7368464 1.1869766 0
-3.779809 6.7459464 1.2288841 0
-3.2920473 6.8447709 1.3789428 0
-2.841392 6.7865653 1.087927 0
84.474922 6.7382674 1.4783585 0
-7.9557815 7.0557265 1.1126009 0
-7.3088946 7.0735669 1.4227201 0
-6.6333642 7.2386322 1.0268877 0
-5.7124586 7.4090772 1.1428907 0
-5.2310772 7.1990881 1.3039373 0
-4.7792602 7.1439629 1.1498357 0
-4.2298889 7.1903119 1.2214444 0
-3.7367783 7.2171445 1.2543586 0
-3.2493796 7.1371408 1.2713767 0
-27.819649 7.8666983 1.0078974 0
-5.6388459 7.6660924 1.192971 0
-5.3356242 7.6646914 1.289934 0
-4.9550161 7.5474186 1.1026738 0
-4.3672709 7.6705866 1.3903894 0
-3.7129157 7.6493459 1.2966186 0
-3.4214082 7.8024969 1.1896698 0
-6.0482388 8.2629595 1.0712078 0
-5.938201 8.05758 1.2230808 0
-4.6104345 8.0412703 1.4604722 0
-4.1711054 8.2476511 1.210222 0
-3.8230274 8.2245388 1.2045295 0
84.712479 8.3517962 1.4849905 0
-5.2039595 8.5431108 1.04633 0
-4.466054 8.5317402 1.3466389 0
-3.8774207 8.6259604 1.1553215 0
84.682716 8.7452383 1.4851649 0
-4.0673151 9.0235767 1.0352499 0
-3.548485 9.3276701 1.3958135 0
24.38316 9.2433567 1.3640844 0
-28.018091 9.9906673 1.0370735 0
-3.8830669 9.8455858 1.2936025 0
-28.424299 10.23174 1.0532668 0
-27.755072 10.27134 1.0317967 0
80.280548 10.308887 1.4119694 0
79.940056 10.600709 1.4067338 0
79.88665 11.342541 1.4075714 0
79.911339 11.730615 1.4089677 0
-5.2759771 12.188698 1.157777 0
-4.8130236 12.310422 1.1522377 0
79.991653 12.114623 1.4113413 0
-5.1988611 12.759626 1.4431498 0
16.34967 12.931137 1.4542829 0
16.285591 13.043795 1.4556781 0
16.568413 13.354348 1.4846969 0
16.312695 13.677923 1.485255 0
80.808067 13.786388 1.4300501 0
-5.1718388 14.268585 1.3236052 0
-4.6933889 14.210272 1.1436323 0
-4.4219418 14.280162 1.3036757 0
15.932701 14.405901 1.4986482 0
16.069889 14.258564 1.4989271 0
81.198029 14.114144 1.4377292 0
-5.1623449 14.719663 1.3605011 0
-4.9500866 14.60812 1.3452197 0
79.996254 14.941992 1.4196485 0
80.249702 15.23856 1.4249542 0
79.779793 15.668 1.4183221 0
80.500122 15.546876 1.4302596 0
19.482616 16.939114 1.3504771 0
19.589432 16.819435 1.3506165 0
24.488459 17.367439 1.0467056 0
24.501133 17.266417 1.0450306 0
-4.6091428 19.347961 1.271226 0
-4.2732058 19.398155 1.3856426 0
-3.8259702 19.240341 1.2703496 0
-4.7501688 19.818619 1.0655601 0
-4.6555276 20.341619 1.0911 0
-4.4202719 20.635094 1.1034513 0
15.845327 20.897509 1.3719138 0
16.053341 20.766735 1.3730861 0
15.422919 21.146809 1.3691784 0
15.580848 21.021671 1.3687947 0
16.416607 21.030785 1.3956952 0
13.862662 23.333591 1.4198745 0
20.260075 24.692814 1.1137128 0
24.371529 25.104696 1.2201562 0
-4.6041536 25.784388 1.3701553 0
-4.2775788 25.796364 1.3678874 0
-3.8396716 25.619366 1.355135 0
-3.3719294 26.280378 1.3860655 0
-3.5489168 26.797127 1.4141175 0
-3.1593847 26.950411 1.4195604 0
59.325661 26.790188 1.1353837 0
-3.2758453 27.214136 1.4340051 0
59.372753 27.256208 1.1395025 0
59.427673 27.727892 1.1438308 0
59.529823 28.220177 1.1491013 0
59.633099 28.722956 1.1545116 0
15.493273 29.399292 1.1588029 0
15.736941 29.411598 1.1631769 0
59.725468 29.22407 1.1597822 0
15.464512 29.558882 1.16327 0
50.239796 29.68894 1.0177778 0
59.812439 29.721394 1.164983 0
50.302422 30.253174 1.0237582 0
50.597794 30.854046 1.0336013 0
22.185345 31.309376 1.338326 0
50.400948 31.383141 1.035521 0
13.927746 31.925098 1.2146419 0
14.041604 31.914499 1.2158985 0
22.109198 31.51475 1.3426534 0
49.754093 31.622749 1.0281911 0
50.101505 31.518698 1.0323447 0
-76.761467 33.375668 1.4602079 0
-77.140221 33.827511 1.4694228 0
-77.51812 34.269379 1.4785677 0
23.271698 34.291855 1.4455372 0
23.077414 34.7001 1.4535874 0
22.925514 35.178196 1.4646157 0
22.902122 35.62841 1.4773654 0
22.850775 36.281784 1.4956528 0
23.092367 36.161701 1.49663 0
-72.987221 36.995071 1.4274672 0
16.794273 36.916042 1.4145929 0
17.340004 36.746376 1.4172336 0
-72.738876 37.156837 1.4248843 0
16.610968 37.286537 1.4237599 0
17.115156 37.00502 1.4220846 0
-3.7517204 38.204876 1.3388842 0
-2.2730465 57.878433 1.010215 0
-1.1368618 57.680092 1.0061661 0
-0.69018954 57.787033 1.0079113 0
-0.23705935 57.906769 1.0099359 0
-2.6443973 58.143177 1.0151018 0
0.11749212 58.045113 1.0123442 0
60.187523 60.843346 1.4930184 0
57.842098 61.274765 1.4699812 0
58.297173 61.176491 1.4742048 0
58.708195 61.029503 1.4773114 0
59.065556 61.018127 1.4814999 0
0.70791292 62.236568 1.0855746 0
1.0055482 62.106544 1.0833756 0
1.3528911 65.272095 1.1387346 0
1.863946 69.008377 1.2041461 0
2.2893989 69.09761 1.2059264 0
2.6176517 69.156082 1.2071481 0
41.497238 69.147743 1.4068035 0
41.745308 69.068382 1.4078507 0
28.721313 69.57766 1.3130493 0
29.249561 69.791077 1.3200302 0
2.8742073 70.102562 1.2238326 0
28.515396 70.016617 1.3187735 0
3.2363853 70.795334 1.2361889 0
3.5587976 70.791954 1.2363983 0
3.8025768 71.179794 1.2433794 0
25.600422 71.270096 1.3210075 0
4.0492802 71.574776 1.2504998 0
4.3020887 72.028793 1.2586676 0
4.5981078 73.140594 1.2783539 0
4.8755717 74.02446 1.2940611 0
5.1130695 74.080597 1.2953176 0
29.272196 74.164108 1.390887 0
28.76375 75.964455 1.4169958 0
29.033686 75.955894 1.4185315 0
28.408491 76.473579 1.423139 0
28.596617 76.245399 1.4205559 0
29.355696 76.080711 1.4225806 0
28.235493 76.708115 1.4259315 0
5.8153491 77.1856 1.3502579 0
6.0621309 77.319054 1.3529106 0
6.3652444 78.943871 1.3816022 0
6.6304445 78.994293 1.3828589 0
8.4172306 84.637672 1.4838035 0
8.6908531 84.686401 1.48513 0
10.253912 -95.307533 1.6723593 0
10.542041 -95.187569 1.6708236 0
7.1721702 -90.322029 1.5806993 0
6.8382449 -89.666069 1.5688317 0
14.103149 -55.357082 1.99318 0
13.656625 -54.680138 1.9664471 0
11.772074 -44.742966 1.6139622 0
12.531344 -43.570251 1.5815057 0
12.300767 -43.26614 1.5690813 0
18.140308 -43.205925 1.6346924 0
20.963604 -43.010033 1.6691731 0
28.240118 -43.346069 1.8049089 0
28.737497 -43.376556 1.8153322 0
29.204351 -43.373917 1.824313 0
29.784174 -43.371174 1.8356204 0
30.213686 -43.27161 1.8412974 0
30.624565 -43.293114 1.8501618 0
31.213226 -43.399311 1.8651222 0
31.739321 -43.414646 1.8763366 0
32.272877 -43.433422 1.8879232 0
32.800827 -43.42765 1.8988118 0
33.2397 -43.453083 1.9087932 0
33.756306 -43.418842 1.9188675 0
34.237637 -43.345676 1.92722 0
34.536808 -43.304802 1.9325947 0
18.26866 -42.943302 1.6279917 0
18.75127 -42.959259 1.6351811 0
19.315058 -42.966869 1.643394 0
19.794001 -42.964108 1.6502343 0
20.293207 -42.978275 1.6580518 0
20.69976 -42.98011 1.6642174 0
21.175707 -42.76759 1.6648455 0
21.721155 -42.859482 1.6762462 0
38.225986 -42.56918 1.9962512 0
13.051259 -42.381081 1.5468854 0
21.708378 -42.021179 1.6499784 0
38.284496 -42.365826 1.9923425 0
12.819542 -41.640755 1.5198033 0
13.420115 -41.73275 1.5291564 0
38.409615 -41.846249 1.9818726 0
38.733204 -41.808968 1.9885733 0
39.038776 -41.874252 1.9975076 0
13.168756 -41.254642 1.5105897 0
13.645804 -41.124928 1.5114274 0
14.016732 -41.37159 1.523712 0
21.749645 -41.312164 1.6286896 0
14.862741 -40.53067 1.5058434 0
15.305031 -40.553791 1.5119859 0
15.582784 -40.918762 1.5273416 0
16.360611 -40.694336 1.5299474 0
16.575251 -40.522575 1.5272019 0
21.834795 -40.696102 1.6111006 0
22.382277 -40.847488 1.6248507 0
15.677907 -40.282085 1.5077978 0
22.292358 -40.237579 1.6046789 0
22.294888 -39.948009 1.5958842 0
22.240211 -39.26791 1.5742464 0
22.358511 -38.919529 1.565731 0
22.807392 -38.713737 1.5674063 0
23.261868 -38.522099 1.5697794 0
23.831995 -38.115448 1.5681041 0
24.232513 -38.223698 1.5787601 0
24.680542 -38.405823 1.5925338 0
22.884466 -37.628971 1.5362759 0
22.891945 -37.37619 1.5288771 0
23.143793 -37.404167 1.5343214 0
-1.8360869 -33.571892 1.7595348 0
-2.1243527 -33.211884 1.741601 0
-1.7451161 -33.181824 1.7388796 0
-3.0693014 -32.530891 1.7099204 0
-2.831687 -32.736668 1.7195501 0
-2.3137176 -32.921711 1.7270865 0
-1.4938617 -32.869125 1.721853 0
-2.8942761 -23.188124 1.630697 0
-3.6940494 -22.581959 1.5967257 0
-3.2311893 -22.636934 1.7497048 0
-4.1681252 -22.325266 1.7842184 0
-3.72194 -22.222731 1.8347723 0
-3.4246588 -22.375267 1.9761693 0
-6.2037773 -21.861568 1.5857042 0
-5.0104537 -21.651245 1.9400868 0
-4.9437103 -21.666582 1.9400868 0
-4.243012 -21.80665 1.6805549 0
-5.989387 -21.362337 1.5480356 0
-5.2476697 -20.763338 1.8694906 0
48.828587 -19.638968 1.8362021 0
48.800301 -19.278082 1.8306181 0
48.874146 -18.87079 1.8278495 0
-3.6095216 -17.873852 1.5911152 0
-3.6156263 -17.345083 1.5459105 0
-3.4311442 -17.229313 1.8413736 0
-28.799271 -16.93676 1.7484397 0
-28.390003 -16.576468 1.7203877 0
-27.899101 -16.520805 1.6967316 0
-3.5091996 -16.803333 1.7991439 0
-3.4311731 -16.825508 1.7997711 0
-26.336477 -14.086686 1.5627517 0
-26.577351 -13.952187 1.5706021 0
-26.639435 -13.201939 1.555634 0
-26.402185 -13.341448 1.5477836 0
-26.248232 -12.752514 1.5268493 0
-25.474228 -12.534297 1.981921 0
-27.123056 -12.07485 1.5534358 0
-26.140642 -12.277889 1.5110438 0
-25.775209 -12.300437 1.7784609 0
23.215651 -12.363693 1.8358971 0
-27.863209 -11.891342 1.5851514 0
-27.353683 -11.872804 1.5602396 0
-26.306576 -11.565728 1.5035074 0
-25.631104 -11.779182 1.9691556 0
-27.024281 -11.383459 1.5342809 0
-26.470039 -11.052464 1.5007858 0
-25.936359 -11.053135 1.9681091 0
20.106152 -11.028656 1.6002135 0
-26.504629 -10.969257 1.5007858 0
-26.15119 -10.76135 1.9741083 0
-4.8705449 -10.83636 1.8740848 0
20.084969 -10.976501 1.7973428 0
-27.706131 -10.129257 1.5434921 0
-26.861526 -10.34493 1.5060195 0
-3.0500281 -10.009072 1.836503 0
-2.7168381 -10.142295 1.796239 0
-3.223712 -9.8425999 1.7531525 0
-2.8529198 -9.6714182 1.9506785 0
-5.7540779 -9.0255814 1.8788732 0
-3.7795599 -9.1277542 1.6162299 0
-3.2344289 -9.2651777 1.546824 0
-2.9206402 -9.3425436 1.7762996 0
-5.5505118 -8.7675505 1.8212221 0
-4.6565828 -8.6878996 1.6424477 0
-3.5881557 -8.7957935 1.7683731 0
-3.1570539 -8.7180243 1.8221501 0
-2.8739021 -8.6525946 1.6596738 0
-2.432317 -8.5151062 1.7653621 0
16.811913 -8.5762148 1.8465898 0
-5.5000405 -8.2270746 1.7364818 0
-5.4460549 -8.258153 1.7357873 0
-4.5442033 -8.2545557 1.9926256 0
-4.1655707 -8.2234573 1.7842195 0
-3.729171 -8.1854563 1.7453887 0
-3.1821415 -8.2165327 1.7084297 0
-2.70455 -8.1960058 1.7818075 0
-2.4429293 -8.0589056 1.7797241 0
16.855921 -8.2752714 1.7767844 0
17.045979 -8.2629528 1.8529478 0
-8.0112572 -7.9859414 1.7839787 0
-7.9014497 -7.8274074 1.7539432 0
-7.3562641 -7.6118336 1.8580354 0
-6.8793588 -7.5709157 1.979071 0
-5.2570996 -7.6193843 1.7900429 0
-4.7025919 -7.5876393 1.8462321 0
-4.2626352 -7.6441774 1.7550592 0
-3.7474008 -7.8953629 1.609627 0
-3.2989595 -7.7433062 1.6481972 0
-2.9500515 -7.7070398 1.6677716 0
-2.47508 -7.9940109 1.6172971 0
16.194151 -7.5932751 1.5606108 0
16.75518 -7.8629494 1.9402573 0
-7.1215768 -7.2963805 1.7539129 0
-6.6832905 -7.240777 1.7288342 0
-5.9485178 -7.0536633 1.9510432 0
-4.6254592 -7.2596641 1.6561625 0
-4.2712092 -7.2661638 1.7036048 0
-3.8645942 -7.2082801 1.7494662 0
-3.3115869 -7.2834692 1.7572776 0
-2.9391472 -7.4980927 1.8481978 0
15.983277 -7.134594 1.527143 0
16.045095 -7.2353001 1.7412287 0
18.176266 -7.1925888 1.7059865 0
-7.1395421 -6.7593246 1.8289194 0
-6.7803411 -6.6325207 1.9197259 0
-6.1314178 -6.9166198 1.8991566 0
-5.7118216 -6.6687627 1.8159037 0
-5.3757658 -6.7500734 1.8239676 0
-4.639441 -6.6484146 1.7398155 0
-4.1724553 -6.7244596 1.732744 0
-3.7502041 -6.5688081 1.7785442 0
-3.4688354 -6.6901002 1.7117813 0
15.992413 -6.9909077 1.5227852 0
16.211163 -6.7177143 1.8393874 0
16.583586 -6.8579903 1.56584 0
-8.6189213 -6.0706944 1.850395 0
-7.0773516 -6.1494689 1.982646 0
-6.772542 -6.2059097 1.7866802 0
-6.1824455 -6.2204857 1.642496 0
-5.7216816 -6.2570076 1.6913987 0
-5.2226591 -6.2394824 1.7221437 0
-4.7469883 -6.2996526 1.7061697 0
-4.1983237 -6.282167 1.7754285 0
-3.7029529 -6.2928944 1.7798313 0
-3.4409542 -6.4448791 1.5427047 0
14.49991 -6.2909479 1.9347976 0
14.551641 -6.1883645 1.776376 0
-6.79989 -5.8816829 1.9010059 0
-6.313611 -5.9864769 1.9975654 0
-5.5543175 -5.9025073 1.934034 0
-5.1908503 -5.8208914 1.7553092 0
-4.7645326 -5.8356457 1.7553838 0
-4.4887748 -5.6815667 1.6600262 0
-3.9744196 -5.7661581 1.7340961 0
-8.6988487 -5.2550282 1.8443521 0
-7.5074039 -5.1114912 1.9202724 0
-6.0958591 -5.1956072 1.5476245 0
-5.9387078 -5.0856447 1.5104439 0
-5.03579 -5.4391613 1.7001801 0
-4.7490325 -5.2125583 1.7127396 0
-4.2299514 -5.2722163 1.6597209 0
-3.938005 -5.2629919 1.5304664 0
-7.8205047 -4.9162455 1.8700631 0
-7.2757306 -4.6485863 1.6665109 0
-6.8209472 -4.636117 1.7319136 0
-6.0979562 -4.8783164 1.6497101 0
-5.865449 -4.7036262 1.5598557 0
-5.1384234 -4.8986611 1.7305766 0
-4.979898 -4.9428782 1.7632694 0
36.213696 -4.932044 1.9128792 0
-6.8009572 -4.2552376 1.7651304 0
-6.3252354 -4.1522026 1.8369261 0
24.771919 -4.2322617 1.7539567 0
34.237099 -4.3378124 1.8061138 0
34.710533 -4.1251197 1.8293859 0
14.262195 -3.5855587 1.68863 0
34.588169 -3.837533 1.8212912 0
14.31813 -3.4550209 1.6467949 0
-6.596436 -2.6671205 1.6801605 0
-6.1715345 -2.5321729 1.6160961 0
-7.1422386 -2.0235825 1.5676541 0
-6.7363577 -2.272161 1.7042516 0
-6.3174977 -2.3953645 1.649729 0
-5.8417625 -2.2039034 1.5561899 0
-8.4721432 -1.5449094 1.6646177 0
-7.5783963 -1.9256425 1.9663839 0
-7.1243901 -1.7741189 1.6399221 0
-6.7903943 -1.7907046 1.6880158 0
-6.3838224 -1.7891022 1.62862 0
16.339067 -1.6168313 1.720643 0
-7.9745102 -1.4936867 1.5676867 0
15.955536 -1.2302057 1.7899563 0
16.136965 -1.1714042 1.8170531 0
-6.5272188 -0.62308675 1.6228122 0
16.31414 -0.84850067 1.7119671 0
25.173233 -0.61476302 1.7574446 0
-6.2158747 0.43765819 1.5645704 0
-7.5752449 0.88549715 1.6108997 0
-6.58745 0.66547054 1.663184 0
-6.2387714 0.96111691 1.5618477 0
-7.5570245 1.4457471 1.9063444 0
-7.0108933 1.3245426 1.7844592 0
-6.7166357 1.3739386 1.7226465 0
-6.1788106 1.4072493 1.5744053 0
-5.9422569 1.2489425 1.5168122 0
-8.141324 1.7642511 1.912084 0
-7.6074448 1.5517174 1.8767639 0
-7.2814403 1.7503471 1.8295721 0
-6.739655 1.8211151 1.6974149 0
-6.1621442 1.7285777 1.5792098 0
-7.342917 2.2396655 1.6999766 0
-6.8292961 2.0802412 1.6151363 0
-6.1804314 2.0703681 1.6131352 0
-6.6520271 3.4177365 1.8526378 0
-6.696774 3.886132 1.7444122 0
-7.7967672 4.3557649 1.7379013 0
-6.8073163 4.2147207 1.8463491 0
-5.5742073 4.2999835 1.7207679 0
-5.4058094 4.3971844 1.7054774 0
-8.0501451 4.7326875 1.8058163 0
-7.6420288 4.6339312 1.6304691 0
-7.2899947 4.7327533 1.7483753 0
-6.8054104 4.7977667 1.7106246 0
-6.2543511 4.846611 1.7492594 0
-5.7495956 4.6818442 1.7835878 0
-5.3563123 4.7166462 1.7163643 0
-4.8852077 4.6630225 1.6343331 0
15.766367 4.8539863 1.7288411 0
16.380226 4.7667661 1.787994 0
-9.008009 5.4062324 1.6563282 0
-8.9241028 5.3768125 1.8276216 0
-8.4114103 5.0165234 1.8943518 0
-7.5690022 5.2999406 1.8418382 0
-7.2507787 5.1837544 1.7499174 0
-6.8233271 5.3083324 1.749239 0
-6.4189968 5.1475964 1.6646535 0
-5.8101354 5.3348513 1.7016003 0
-5.1664791 5.2818542 1.811231 0
-4.8227038 5.3153815 1.7413583 0
-4.4636059 5.1650109 1.7151892 0
15.431467 5.4638586 1.7155211 0
15.561459 5.215322 1.719981 0
16.439575 5.1465645 1.5029137 0
16.546045 5.1804657 1.512675 0
-8.018362 5.583663 1.5399408 0
-7.7613859 5.6693759 1.7541761 0
-7.0953412 5.715951 1.680418 0
-6.1690764 5.5820231 1.7585566 0
-5.6439953 5.5181084 1.5249455 0
-5.1581445 5.6163516 1.7366706 0
-4.8591051 5.7577782 1.7636024 0
-4.494174 5.8501954 1.8545238 0
15.314919 5.6906509 1.7121763 0
-7.6507344 6.2644234 1.7362411 0
-7.2896681 6.0214691 1.6586874 0
-6.3865004 6.4049253 1.8791879 0
-5.1683521 6.2659569 1.661518 0
-4.7898788 6.1629534 1.7640759 0
-4.3225398 6.3255424 1.8757818 0
-3.1504924 6.2190309 1.7262579 0
15.670814 6.1278987 1.7634648 0
-7.1663475 6.940588 1.5724792 0
-6.5052495 6.6591568 1.6329875 0
-6.4415874 6.6179128 1.7022406 0
-5.6210628 6.6210136 1.7714801 0
-5.1467528 6.9926677 1.6783561 0
-4.8515825 6.7423425 1.8089615 0
-4.3566442 6.629889 1.7773862 0
-3.6280077 6.9505405 1.5614945 0
-3.3600814 6.6978226 1.6452382 0
-7.7160563 7.406456 1.7829566 0
-6.8249745 7.1004286 1.8169351 0
-5.2043638 7.260994 1.7615296 0
-4.8633904 7.3063865 1.6864139 0
-4.3637857 7.126626 1.7660019 0
-3.8232629 7.2342706 1.7289937 0
-8.8230438 7.5249853 1.8290318 0
-8.0083666 7.7565422 1.9573623 0
-7.8870363 7.6411119 1.9278421 0
-5.5488205 7.7385135 1.6708547 0
-5.2356973 7.737864 1.7683606 0
-4.7123141 7.826057 1.8912382 0
-4.2609229 7.7677422 1.8730348 0
-3.6678061 7.8854332 1.5249784 0
-4.5840216 8.2453527 1.891614 0
-4.1804323 8.4674797 1.6566036 0
-3.8348434 8.2283154 1.7021996 0
-5.3921518 8.8129406 1.998915 0
-4.8427887 8.7063408 1.9271709 0
-4.0769677 8.8742733 1.8551153 0
-3.6934371 8.8515902 1.9039625 0
-3.4617457 8.7090673 1.9818144 0
20.549314 8.593586 1.5541743 0
-4.2535124 9.324914 1.9828871 0
-3.8356485 9.123971 1.9147047 0
-3.223917 9.2043839 1.7129564 0
-28.570946 9.6380472 1.5777197 0
-3.8044641 9.8427296 1.7979498 0
-3.3971992 9.5613327 1.8260486 0
-29.530972 10.21968 1.6351846 0
-29.483582 10.099649 1.6307884 0
-28.819254 10.125407 1.59834 0
-28.071848 10.05778 1.5602396 0
-4.2141757 10.436546 1.9761163 0
-4.5089111 11.14537 1.8966113 0
-4.4634719 11.182774 1.8994272 0
-4.7591448 12.860491 1.8716761 0
16.118952 12.866742 1.800231 0
16.6077 12.924036 1.8368945 0
15.761467 13.329422 1.8017998 0
16.039314 13.131521 1.8093534 0
85.385674 13.478669 1.5080274 0
-5.1354837 13.648822 1.7846546 0
16.756052 13.734563 1.5116692 0
85.315269 13.742405 1.5075388 0
-5.0217252 14.353395 1.6826835 0
-4.7746978 14.368831 1.7122586 0
15.916367 14.31026 1.8683867 0
16.531607 14.037232 1.5131574 0
85.334824 14.020734 1.5086558 0
-5.7425127 15.170549 1.6998417 0
-4.8464746 17.896709 1.6179593 0
-5.4012465 18.083004 1.9785147 0
-4.7540703 18.328468 1.9851002 0
16.044403 20.475342 1.8156215 0
15.494041 20.949528 1.8186908 0
15.763756 20.698877 1.81604 0
16.37993 20.795298 1.8477095 0
15.437877 21.005806 1.8195279 0
15.598167 21.432323 1.8502207 0
15.697755 21.783941 1.8742169 0
16.068474 22.446198 1.9269527 0
13.804461 23.369259 1.8945858 0
-4.615406 25.679667 1.8211092 0
-4.5831208 26.391859 1.8697525 0
-4.5349231 26.549971 1.8800764 0
-4.3056126 26.717134 1.8890053 0
-4.3852353 27.209852 1.9238836 0
15.928058 29.403217 1.7500098 0
16.290087 29.357193 1.7570227 0
16.524624 29.349834 1.762675 0
15.920942 29.824303 1.7692693 0
16.300968 29.590797 1.7680132 0
44.890408 29.695091 1.8778722 0
39.922653 30.594465 1.7547467 0
40.046768 30.685143 1.7601211 0
35.158752 31.397362 1.6443944 0
35.54361 31.442835 1.6554925 0
14.092436 31.919811 1.8261062 0
35.193485 31.828186 1.6553528 0
35.28109 32.302124 1.6687542 0
45.392601 32.3941 1.9457166 0
35.384083 32.90974 1.6857852 0
44.721317 32.651199 1.9319663 0
45.152245 32.540512 1.9418777 0
35.429401 33.160023 1.6929047 0
35.507526 33.433086 1.7014202 0
35.551765 33.790516 1.7111223 0
35.639816 34.302834 1.7257104 0
23.178833 36.547348 1.5096127 0
-5.2702432 47.587891 1.6702899 0
-4.9840426 47.699253 1.6730819 0
-4.4282556 48.223763 1.6894149 0
-3.6946929 48.49799 1.6968135 0
-4.177424 48.782291 1.7080745 0
-3.7215853 48.818451 1.7080512 0
-3.4435189 49.185719 1.7201263 0
-1.5292683 56.768959 1.9814539 0
-1.7166706 57.067551 1.9920632 0
62.219105 60.400852 1.5127746 0
62.505447 60.300503 1.5151482 0
61.946068 60.51498 1.5107501 0
43.720665 76.295517 1.5340664 0
44.107288 76.123627 1.5348344 0
43.539082 76.799629 1.54014 0
46.209541 84.228203 1.6760943 0
99.024361 -80.822639 2.2302778 0
99.053116 -80.305626 2.2249725 0
99.159668 -79.900208 2.2219706 0
-0.096011452 -69.645645 2.4304008 0
0.1232609 -69.949417 2.4410105 0
104.19938 -66.770943 2.1593513 0
104.28042 -66.361649 2.1566987 0
104.34302 -65.941818 2.1536965 0
-1.5941114 -60.970154 2.1281712 0
-1.0302576 -60.994282 2.1285901 0
-1.3026617 -60.327248 2.1054866 0
105.73277 -60.337273 2.1240973 0
-2.2235947 -59.882298 2.0908985 0
106.20408 -59.944691 2.1278672 0
106.56036 -59.727329 2.1314275 0
13.744347 -57.681114 2.0689816 0
13.409586 -57.070194 2.0455294 0
12.42084 -56.810749 2.0290565 0
12.765046 -56.691868 2.0276144 0
13.142774 -56.734268 2.0319881 0
11.311019 -45.884075 2.474165 0
11.957313 -45.833115 2.479887 0
12.149745 -45.997349 2.4907727 0
11.473202 -45.1287 2.4378088 0
11.703803 -45.477905 2.4585338 0
37.805645 -44.685314 2.0423186 0
37.900475 -44.239716 2.0326166 0
37.964157 -43.886948 2.0247293 0
38.002136 -43.663452 2.0197036 0
47.965355 -43.535542 2.2603705 0
48.369022 -43.625637 2.2729344 0
48.773712 -43.71365 2.2854981 0
49.137184 -43.774853 2.296387 0
49.732918 -43.889191 2.3146045 0
17.130293 -43.232162 2.4345641 0
19.27298 -43.056736 2.4697337 0
19.755844 -43.061317 2.4804103 0
20.255436 -43.07616 2.4921336 0
38.088776 -43.351284 2.0134914 0
45.290794 -43.07254 2.1809392 0
45.814636 -43.170544 2.1965742 0
46.174675 -43.236839 2.2073233 0
46.70948 -43.331329 2.2232375 0
47.249969 -43.417824 2.2391515 0
47.602299 -43.477081 2.2496216 0
11.560363 -42.68166 2.314924 0
17.298269 -42.676472 2.4108036 0
20.428751 -42.978821 2.491401 0
20.769075 -42.848125 2.4929709 0
21.212364 -42.575207 2.4903541 0
38.159332 -42.891392 2.0030916 0
42.75922 -42.562035 2.1051378 0
43.247967 -42.65081 2.1194463 0
43.745689 -42.745911 2.1341739 0
44.257484 -42.858948 2.1497393 0
44.76746 -42.972275 2.1653044 0
11.339605 -42.3936 2.2973392 0
11.626707 -42.149982 2.2889652 0
39.93478 -42.046604 2.0233333 0
40.209133 -42.072327 2.0305922 0
40.698414 -42.184326 2.0452499 0
41.311798 -42.285271 2.0626998 0
41.818588 -42.415318 2.0783348 0
42.258011 -42.461029 2.0902703 0
12.933954 -41.558304 2.2784982 0
13.241359 -41.627537 2.2868023 0
13.773138 -41.506687 2.2893841 0
14.642735 -41.576572 2.3075969 0
16.811453 -41.852043 2.3611891 0
22.819908 -41.813026 2.4939129 0
39.306877 -41.89719 2.0044875 0
39.633102 -41.979923 2.0143991 0
12.272192 -41.218853 2.2513881 0
13.479494 -41.472786 2.2828944 0
13.56113 -41.282223 2.27473 0
14.067768 -41.09967 2.274102 0
14.705661 -41.355152 2.2977579 0
15.481002 -41.088272 2.2985952 0
15.62979 -41.113113 2.3025727 0
22.808353 -41.327194 2.4713039 0
11.484256 -40.896027 2.2236502 0
11.747639 -40.852871 2.225255 0
12.350417 -40.55933 2.2194633 0
12.58584 -40.871578 2.2387228 0
13.749336 -40.796452 2.253691 0
14.153027 -40.533428 2.2475152 0
14.787946 -40.78503 2.2711012 0
15.082755 -40.806278 2.2774515 0
13.890256 -40.168026 2.2249062 0
15.248072 -40.287621 2.2550516 0
15.647678 -40.205269 2.2585058 0
16.791437 -40.167976 2.2791262 0
17.246214 -40.194199 2.2896981 0
17.660744 -40.125336 2.2950363 0
44.342464 -38.643661 2.0523 0
52.651997 -38.153465 2.2689557 0
43.960674 -37.939972 2.0261252 0
44.057358 -37.677032 2.0227051 0
52.868649 -37.931728 2.2705612 0
53.040577 -37.815041 2.2730742 0
44.25827 -37.255718 2.0185404 0
44.282112 -36.812149 2.0092337 0
44.777081 -36.750362 2.0211928 0
-3.5184798 -30.880562 2.1699843 0
-3.3461659 -30.620716 2.1505921 0
-4.1084127 -23.452084 2.4973941 0
-3.0087397 -22.718418 2.0007472 0
-3.6932721 -22.302122 2.3709145 0
-6.1569586 -21.536179 2.3491726 0
-5.1018391 -21.555725 2.3231452 0
-4.9416556 -21.620693 2.3259673 0
-6.2522926 -21.485937 2.346873 0
-5.2655091 -21.494968 2.32095 0
55.212002 -20.727983 2.0577674 0
55.298756 -20.198374 2.0541844 0
55.786896 -19.900127 2.0666785 0
56.276176 -19.782059 2.0814059 0
42.376221 -17.30489 2.396359 0
42.90303 -17.286541 2.4215846 0
-3.554373 -16.888905 2.1132145 0
-3.3995893 -16.902586 2.4163232 0
-25.734068 -14.159724 2.0505612 0
-26.843792 -13.675753 2.103297 0
-26.120831 -13.563465 2.0547466 0
-25.93338 -13.810534 2.0512123 0
22.721943 -13.644463 2.314595 0
39.615082 -13.713149 2.194499 0
-26.173523 -13.333834 2.0507007 0
22.417007 -13.082333 2.2665725 0
39.693104 -13.255591 2.1906435 0
-25.923464 -12.903933 2.0215425 0
22.428238 -12.742948 2.2526274 0
22.5462 -12.740405 2.261517 0
39.787361 -12.809687 2.1880617 0
-25.88476 -12.305843 2.166909 0
22.473087 -12.423054 2.2423429 0
22.984945 -12.4422 2.2824347 0
23.049616 -12.247513 2.2793841 0
23.518089 -12.262523 2.3162508 0
39.883324 -12.295802 2.1847644 0
-25.584951 -11.618777 2.4541895 0
-25.462299 -11.803408 2.4511681 0
39.954807 -11.858863 2.1817117 0
40.008129 -11.611407 2.1807346 0
-26.386223 -11.436329 2.0075912 0
20.593941 -11.225596 2.0478113 0
40.072792 -11.297289 2.1794786 0
-30.358269 -10.678622 2.2469954 0
-27.616781 -10.790045 2.0699534 0
-27.019745 -10.700095 2.0287971 0
-25.91102 -10.761055 2.4504707 0
-27.661098 -10.215242 2.0585835 0
-25.941467 -10.397355 2.4408836 0
-2.7194448 -10.141058 2.2214949 0
-2.7762897 -9.8152514 2.4362073 0
-4.5994606 -9.4215021 2.4093759 0
-4.0554566 -9.4798346 2.1814094 0
-3.7177615 -9.138608 2.2666066 0
-3.1269853 -9.254323 2.3504484 0
16.835243 -9.2000742 2.236372 0
17.006184 -9.1301765 2.0236709 0
-4.5148578 -8.8307772 2.4608295 0
-4.3394337 -8.7708912 2.2516472 0
-3.7349429 -8.6493711 2.2559988 0
-3.1791229 -8.7598886 2.1817539 0
-2.8438873 -8.6377783 2.2332687 0
16.837667 -8.839922 2.2809863 0
-4.1521025 -8.1973095 2.2031612 0
-3.792716 -8.1657019 2.1748686 0
-3.1581776 -8.2744083 2.1590736 0
-2.6804693 -8.3595514 2.1561983 0
-2.4848731 -8.3516741 2.1713886 0
16.78458 -8.2643185 2.2913387 0
17.302946 -8.0248051 2.3359914 0
-7.573885 -7.8084002 2.3019984 0
-7.4245086 -7.748147 2.0765743 0
-4.120316 -7.7521729 2.1505594 0
-3.7279205 -7.6784105 2.1308043 0
-3.1778617 -7.7129908 2.0838056 0
-2.9646046 -7.7100477 2.047627 0
16.947765 -7.9877081 2.2945561 0
17.001451 -7.9480782 2.2984557 0
-7.1971684 -7.3395834 2.0342169 0
-6.8029809 -7.1764741 2.1517296 0
-6.401957 -7.1964617 2.0371189 0
-5.1621246 -7.3606772 2.229552 0
-4.7998476 -7.2203255 2.1665833 0
-4.1136899 -7.0995336 2.0437412 0
-3.4692085 -7.4241714 2.0311763 0
15.882936 -7.1853042 2.1345658 0
16.044327 -7.04988 2.1458755 0
-9.382946 -6.5660944 2.0108459 0
-8.1825686 -6.5880456 2.4141748 0
-7.7908936 -6.6840167 2.1717069 0
-7.1528993 -6.6927667 2.1736598 0
-6.5189166 -6.6557651 2.310838 0
-6.2408442 -6.6756334 2.1833997 0
-5.8400898 -6.7379842 2.0476544 0
-5.0100741 -6.6950731 2.103756 0
-4.7666059 -6.6803975 2.0468152 0
-4.4049516 -6.9659963 2.073338 0
-7.7093568 -6.2999692 2.2876878 0
-7.2658515 -6.2551913 2.2883072 0
-6.7856236 -6.1673856 2.1940248 0
-6.3689513 -6.1599555 2.1000078 0
-5.9782743 -6.3492098 2.1945198 0
-5.3895845 -6.1134691 2.0200479 0
-4.735363 -6.4546123 2.013483 0
14.499175 -6.2973986 2.4960685 0
14.551478 -6.1949892 2.3364673 0
-7.6385098 -5.9984779 2.4095421 0
-7.1914821 -5.9218431 2.2768345 0
-6.8046808 -5.7637291 2.1771221 0
-5.624743 -5.8726425 2.035403 0
-8.6524048 -5.0714264 2.1215308 0
-8.2508049 -5.194376 2.4188964 0
-7.7841272 -5.1308036 2.3396459 0
-7.3043566 -5.1448874 2.0515535 0
-6.5304828 -5.2963047 2.084399 0
-6.3213377 -5.1903858 2.0423026 0
34.880959 -5.0744891 2.461427 0
-8.7414055 -4.8483462 2.3115199 0
-8.342351 -4.8321538 2.2896051 0
-7.6622934 -4.8905439 2.2021768 0
-7.3051343 -4.527761 2.1308482 0
-6.8164716 -4.6874795 2.0506511 0
34.906738 -4.7515264 2.4600782 0
35.008858 -4.8408408 2.4679842 0
-8.2159729 -4.2379646 2.2929358 0
-7.1992974 -4.3988347 2.1018503 0
-6.785768 -4.2451696 2.013483 0
34.861515 -4.3807349 2.4535677 0
35.132751 -4.1398754 2.4703557 0
14.257399 -3.5992947 2.1905298 0
14.324533 -3.4625077 2.169086 0
15.473383 -1.510631 2.4547696 0
16.618124 -1.6422827 2.0444803 0
15.440895 -1.2456653 2.4460094 0
15.701294 -1.0919482 2.2052441 0
15.461827 -0.86758381 2.4451749 0
15.64946 -0.79795265 2.2880919 0
25.178543 -0.69302404 2.1994624 0
16.401413 -0.30778706 2.2987223 0
-8.1582737 1.586926 2.0602069 0
-7.7567863 4.3562927 2.0832715 0
-7.2284069 4.2198963 2.074964 0
-6.8058972 4.3269582 2.0288556 0
-7.630497 4.7228527 2.2426438 0
-7.2621684 4.7916546 2.1293383 0
-6.8178253 4.804965 2.0829802 0
15.86894 4.8600483 2.2516632 0
16.135515 4.7345428 2.1485789 0
-8.0293884 5.4601259 2.2306144 0
-7.6512885 5.0891719 2.1768005 0
-7.2926869 5.2461634 2.1671033 0
-6.9110551 5.1156263 2.1318157 0
-6.1924515 5.4203615 2.0398855 0
15.887647 5.2586656 2.1706214 0
16.006027 5.0324087 2.0542297 0
-7.8094125 5.7222662 2.1361198 0
-7.3964415 5.5484815 2.3274765 0
-6.5546818 5.7021527 2.1861794 0
-6.1109924 5.6051903 2.0860941 0
-5.7404094 5.9626398 2.0821691 0
15.633759 5.6810818 2.1274347 0
16.16885 5.7235026 2.403909 0
-6.1908069 6.3656726 2.0991023 0
-5.7701659 6.3352532 2.14431 0
-5.2378788 6.2948241 2.056695 0
-4.9316096 6.4553528 2.0134351 0
15.903807 6.1880107 2.0894499 0
16.086214 6.0538325 2.408808 0
-6.3338723 6.6777835 2.2827749 0
-5.5074687 6.5168867 2.115365 0
-5.0794587 6.6921773 2.0827863 0
-4.9006772 6.6547723 2.0669627 0
-4.3877158 6.7734528 2.0299675 0
-5.1521168 7.1960511 2.16343 0
-4.6899972 7.3035131 2.1036232 0
-7.4488382 7.6571355 2.260416 0
-5.5250864 7.5640254 2.1514318 0
-5.2777414 7.8223228 2.3646464 0
-4.7535925 7.8257627 2.1820641 0
-4.3108873 7.8235245 2.1199043 0
-8.275897 8.1394463 2.0382824 0
-5.9413223 8.0312843 2.1132145 0
-5.1054368 8.244359 2.3466227 0
-4.738904 8.1924448 2.3025026 0
-4.4437747 8.1819696 2.2577863 0
-3.3661191 8.4818478 2.095644 0
20.736109 8.4746265 2.3493817 0
-5.091548 8.6496964 2.1231942 0
-4.7944565 8.6313143 2.3113928 0
-4.2431426 8.7594376 2.3942904 0
-3.8300567 8.8490467 2.0905144 0
-3.2969332 8.5798588 2.1109407 0
20.694687 8.5700102 2.3491726 0
-3.7262728 9.3007851 2.1195905 0
-3.6567369 9.664257 2.1486621 0
-3.4149592 9.6749392 2.170598 0
-4.4767728 10.98893 2.0837781 0
-4.6876688 11.357992 2.1580997 0
-4.5189085 11.704149 2.4293802 0
-4.4821186 11.718287 2.4293802 0
-4.6141953 12.163647 2.4393511 0
15.446301 12.437963 2.4290996 0
15.779664 12.388585 2.4573734 0
-4.7712035 12.667053 2.2825806 0
15.334438 12.762938 2.3793137 0
15.721312 12.696788 2.2202671 0
15.230187 13.298969 2.2538044 0
15.781615 13.193856 2.1570492 0
14.873843 13.622002 2.1742213 0
15.180351 13.561531 2.2533896 0
15.670077 13.648086 2.1790702 0
-4.2769833 18.750404 2.3554907 0
15.778593 20.926054 2.2887096 0
16.752916 20.905373 2.3396087 0
15.462648 21.323385 2.3002143 0
15.672177 21.166422 2.3000052 0
16.287422 21.120533 2.3292372 0
16.53631 21.034229 2.3366454 0
15.657784 21.880074 2.3497188 0
15.461132 22.255272 2.366627 0
15.560926 22.102818 2.3607006 0
13.880583 23.343443 2.3718565 0
-4.5792556 25.469084 2.259774 0
-4.4561996 25.468622 2.2578568 0
24.393942 25.11071 2.4446855 0
-4.2894197 25.927216 2.2949848 0
-4.3581247 26.348282 2.3322878 0
-3.6739166 26.352961 2.3236883 0
-3.4752166 26.31847 2.3183427 0
-4.1131258 26.672541 2.3569238 0
-3.864958 26.716963 2.3575628 0
59.229019 26.844616 2.2691655 0
59.256912 27.183121 2.2749586 0
59.330505 27.662062 2.2843118 0
59.416275 28.151505 2.2942929 0
16.155472 28.964342 2.3157754 0
49.766262 28.772532 2.0057437 0
50.068787 28.64328 2.0126538 0
59.478329 28.513935 2.3016915 0
59.533226 28.768583 2.3072755 0
15.885725 29.328896 2.3290291 0
16.152277 29.136847 2.3262389 0
49.824978 29.013857 2.0117466 0
50.240528 29.467451 2.0322676 0
59.598354 29.14192 2.3150232 0
15.41665 29.892706 2.348561 0
15.788256 29.814327 2.3557458 0
59.68737 29.644028 2.3255627 0
50.371426 30.276476 2.0506246 0
59.740887 30.011211 2.3329616 0
50.262348 30.745607 2.0558596 0
35.236279 31.295425 2.4673262 0
35.642807 31.263409 2.4821897 0
50.363247 31.449169 2.0717738 0
50.548786 31.127195 2.0713549 0
13.94838 31.938154 2.4336638 0
14.072832 31.953285 2.4381282 0
22.68457 31.928383 2.0501041 0
23.036501 31.995888 2.0637114 0
35.238247 31.68885 2.481143 0
49.726376 31.699076 2.0576279 0
50.19989 31.566813 2.0691214 0
22.653704 32.302052 2.0651767 0
23.128819 32.337719 2.0810869 0
35.300117 32.037563 2.4957972 0
22.833246 35.468163 2.2081585 0
