# .PCD v0.7 - Point Cloud Data file format
VERSION 0.7
FIELDS x y z intensity
SIZE 4 4 4 4
TYPE F F F F
COUNT 1 1 1 1
WIDTH 1465
HEIGHT 1
VIEWPOINT 0 0 0 1 0 0 0
POINTS 1465
DATA ascii
14.768985 -35.941578 1.3552637 0
22.45479 -35.89782 1.4769468 0
61.241558 -35.94157 1.2386322 0
61.598671 -35.761974 1.2424369 0
22.441284 -35.270432 1.4581708 0
22.804802 -35.227314 1.4637548 0
52.341438 -35.260643 1.1007582 0
52.501808 -35.129402 1.1018053 0
22.210791 -34.907986 1.443164 0
22.828184 -34.676468 1.4480966 0
23.164528 -34.509041 1.4497252 0
52.195599 -34.687511 1.0930791 0
23.004719 -34.471687 1.4455371 0
24.192575 -34.183743 1.4607533 0
24.592789 -34.291451 1.4719211 0
52.3144 -34.424339 1.0922763 0
52.718807 -34.21859 1.0962205 0
52.803478 -33.932823 1.0947545 0
53.153782 -33.800533 1.0986638 0
22.865915 -33.397842 1.4117544 0
23.11808 -33.314495 1.4143602 0
18.597769 -30.786922 1.2543577 0
20.283272 -30.015303 1.2633618 0
-2.1038678 -29.519253 1.0317687 0
-1.9339873 -29.771235 1.0401447 0
20.352837 -29.924669 1.2621053 0
-3.2634175 -29.156219 1.0228344 0
-2.887979 -29.055197 1.0179485 0
-2.2568932 -29.37121 1.0270224 0
-3.2462654 -28.789547 1.0100613 0
-2.6809666 -28.78264 1.0078044 0
-1.5681738 -28.99806 1.0124345 0
-3.4241433 -26.547527 1.4003009 0
-3.1629047 -20.316319 1.4344163 0
-3.2656567 -19.771442 1.3979197 0
-3.6824961 -19.204582 1.0222956 0
-3.4476674 -19.015669 1.0102932 0
-3.5713451 -18.907444 1.005897 0
-3.855469 -18.476166 1.3164442 0
-4.9436588 -17.220943 1.249478 0
-4.2074747 -17.102339 1.2282162 0
-4.408814 -16.926693 1.2197617 0
55.646748 -16.752687 1.0135427 0
55.773102 -16.431778 1.0140547 0
56.248058 -16.389578 1.0218035 0
-3.6712482 -13.818277 1.4976839 0
-5.6015882 -13.184883 1.2491162 0
-5.4374461 -13.124369 1.4880672 0
-3.6860819 -13.331568 1.340896 0
-5.7182102 -12.794271 1.3858495 0
-5.4470558 -12.916219 1.4682765 0
-4.639698 -12.853837 1.191394 0
-4.2805624 -12.917847 1.1864337 0
-5.7235594 -12.349018 1.3300203 0
-5.4357381 -10.70104 1.0458689 0
81.519783 -10.673158 1.4342388 0
-5.8360243 -10.244204 1.4417143 0
-5.2926483 -10.368805 1.1501654 0
81.661835 -10.176842 1.4356 0
81.731171 -9.6722822 1.4357396 0
81.793594 -9.1654568 1.4358094 0
23.130075 -8.6451807 1.2915816 0
81.867386 -8.6539402 1.4361236 0
23.084549 -8.3836279 1.2846035 0
81.931366 -8.1477356 1.4363331 0
23.339663 -7.9059119 1.2889299 0
23.679626 -7.7745767 1.3036537 0
39.855995 -7.6840453 1.4157562 0
81.984886 -7.7630615 1.4366124 0
82.011658 -7.5188041 1.4366821 0
-3.5393131 -7.2693167 1.1295288 0
39.936089 -7.2519217 1.4157331 0
82.059906 -7.1348047 1.4369264 0
-4.1147499 -6.5667872 1.1737801 0
-3.6108716 -6.7585464 1.3443943 0
-3.3418283 -6.6847634 1.3791223 0
-2.9854443 -6.5675778 1.0708309 0
39.989021 -6.943891 1.4156631 0
40.046406 -6.6936111 1.416175 0
-5.2804031 -6.2145176 1.2350414 0
-4.744843 -6.0822625 1.2600094 0
-4.3154707 -6.4113092 1.2164344 0
-3.7687521 -6.2898383 1.1104217 0
-3.2203257 -6.2107811 1.235072 0
-2.8455129 -6.1281662 1.3039887 0
-4.8097482 -5.9253263 1.405143 0
-4.0333252 -5.9099927 1.3814572 0
-3.6500897 -5.8371835 1.2238319 0
-3.1811676 -5.632936 1.1797446 0
-5.2514758 -5.0662479 1.0187471 0
-4.905798 -5.3372722 1.0120668 0
-4.1781435 -5.2649622 1.3339401 0
-3.773423 -5.4114571 1.3622637 0
-3.3838012 -5.1746244 1.1765418 0
-2.9135826 -5.0341392 1.1236991 0
-5.6431766 -4.8485155 1.1707555 0
-5.4296956 -4.8978214 1.0420249 0
-4.1511283 -4.7459545 1.2305634 0
-3.7390263 -4.6746149 1.3358876 0
-3.2536411 -4.7644477 1.3549986 0
-2.7653964 -4.7002425 1.2496731 0
-2.417541 -4.6379337 1.1775105 0
16.844971 -4.5077195 1.2159948 0
17.327391 -4.8402758 1.2546864 0
-6.1325045 -4.1809392 1.4333571 0
-5.1892452 -4.2817459 1.1756444 0
-4.693325 -4.3618841 1.3301141 0
-4.2844639 -4.2930565 1.2824992 0
-3.6203601 -4.171875 1.3085799 0
-3.2179508 -4.3120513 1.2273201 0
-2.8188972 -4.4640398 1.3140506 0
16.6842 -4.237833 1.338864 0
-6.4328766 -3.6498725 1.3950424 0
-5.6533179 -3.5701923 1.1114869 0
-5.2711754 -3.7320576 1.1790162 0
-4.6890774 -3.5695524 1.3104311 0
-4.1473927 -3.6580598 1.3172239 0
-3.7128942 -3.826524 1.2040591 0
16.281696 -3.5892406 1.4544551 0
16.560787 -3.7858517 1.2842733 0
-29.670015 -3.4503365 1.041401 0
-29.361223 -3.2977879 1.0300936 0
-5.1739221 -3.2353096 1.3977559 0
-4.7311225 -3.3841207 1.340143 0
-4.2314787 -3.3505385 1.2827575 0
-3.6840429 -3.2259207 1.0993971 0
-3.4751527 -3.257648 1.0452697 0
15.891942 -3.1471791 1.4131781 0
16.257322 -3.3201578 1.3373699 0
16.610132 -3.149447 1.1788446 0
-28.707026 -2.9337258 1.0060129 0
-8.3125782 -2.591053 1.2169296 0
-6.2931013 -2.5447228 1.0675088 0
-5.8480129 -2.9874213 1.0324675 0
-5.0336056 -2.6541452 1.2770375 0
-4.8340945 -2.7604129 1.2578045 0
-4.291286 -2.5722618 1.2415403 0
16.456663 -2.8659654 1.457244 0
16.687784 -2.7948377 1.3055747 0
-7.8301868 -2.1381853 1.2779653 0
-7.4149284 -2.1248264 1.1596401 0
-6.9909368 -2.00634 1.015407 0
-6.0589242 -2.374568 1.0230814 0
-5.5639009 -2.1378694 1.4741511 0
-5.232594 -2.1522155 1.359773 0
-4.5915899 -2.1648593 1.2631849 0
-4.1754189 -2.1795206 1.0716971 0
-3.905735 -2.1686239 1.0752854 0
14.454789 -2.1202667 1.1461041 0
34.839172 -2.1670587 1.2172945 0
35.034988 -2.179697 1.2241347 0
-5.1374445 -1.6616819 1.223591 0
-4.7408566 -1.8355587 1.1873901 0
-4.1809011 -1.8026707 1.0773418 0
33.979988 -1.6377831 1.1863037 0
34.353939 -1.7641262 1.1995655 0
34.811295 -1.8964758 1.2157588 0
-7.1111217 -1.188206 1.0608873 0
-6.7998724 -1.0503032 1.2061572 0
-6.158843 -1.2103195 1.2136415 0
-5.9671926 -1.2505758 1.0665472 0
-5.2050443 -1.4637948 1.3461447 0
-4.8530192 -1.2680596 1.1509986 0
-4.1132264 -1.2966216 1.0568265 0
-3.975523 -1.3670492 1.0478259 0
-7.0835056 -0.60570222 1.1184503 0
-6.6958194 -0.73281288 1.2667644 0
-6.2144995 -0.70959359 1.2660657 0
-5.8984666 -0.77002758 1.4004915 0
20.31143 -0.82755023 1.0628386 0
23.975937 -0.64269704 1.254458 0
24.39352 -0.50386685 1.27616 0
24.505171 -0.81011385 1.2824403 0
-29.120245 -0.090848006 1.0152264 0
-7.1131301 -0.19496155 1.2345507 0
-6.8538604 -0.23817495 1.3550127 0
-6.302062 -0.43483439 1.447335 0
20.216789 -0.25824499 1.0570817 0
-29.042006 0.13704585 1.0125042 0
-28.903282 0.33682555 1.007723 0
-7.1643996 0.027296096 1.1694036 0
-6.8065767 0.028213147 1.2230747 0
14.161256 0.42730203 1.3596766 0
-29.156189 0.90891242 1.0169713 0
-28.757391 0.67056912 1.0028254 0
-4.2404237 0.93218017 1.0785398 0
14.203238 0.59534377 1.3821033 0
-29.17638 1.0795574 1.0178788 0
-6.6893158 1.2703824 1.301439 0
-4.2097602 1.053309 1.0785714 0
-8.2553587 1.5867984 1.1762758 0
-7.1871443 1.9453858 1.2372612 0
-6.7047663 1.8800212 1.3805951 0
-6.273293 1.9091632 1.2891432 0
-28.461313 2.2534661 1.4937519 0
-8.170476 2.4031084 1.0397893 0
-7.6038795 2.2501814 1.1360894 0
-7.1698718 2.1845868 1.2409534 0
-6.80865 2.2591729 1.3069159 0
-6.180275 2.2220407 1.3706037 0
-5.9654455 2.1707468 1.310308 0
-5.3570418 2.4552124 1.0657945 0
16.302492 2.3957698 1.3413196 0
-28.506414 2.512615 1.4972271 0
-27.199472 2.9097221 1.4310744 0
-26.991682 2.9732029 1.4206072 0
-8.1993132 2.7739697 1.1585085 0
-7.7058463 2.6807914 1.2644522 0
-7.2038703 2.6745722 1.2206981 0
-6.797009 2.6996603 1.1953455 0
-6.0087457 2.9717669 1.4146312 0
-5.8280454 2.8765514 1.3387272 0
-5.3480654 2.6462641 1.4757235 0
15.942078 2.8250844 1.4122716 0
16.214535 2.7473569 1.2811242 0
-27.058025 3.1919715 1.4253697 0
-26.740257 3.3655505 1.4099307 0
-26.255196 3.4264309 1.3851235 0
-8.034893 3.4865227 1.0695254 0
-7.705595 3.1605031 1.2551883 0
-7.3082576 3.2489493 1.2086099 0
-6.7553296 3.2673721 1.2481586 0
-6.2607017 3.3337061 1.2046992 0
-5.811358 3.3035009 1.3400058 0
-5.2457843 3.3288219 1.2311145 0
-4.6019173 3.3681822 1.3057184 0
-4.4327879 3.269675 1.1481413 0
15.971871 3.180697 1.2983749 0
16.060072 3.2364137 1.2615649 0
25.057339 3.4038248 1.3227389 0
-26.334997 3.7300754 1.3914247 0
-8.216424 3.9382923 1.3274251 0
-7.6684341 3.6045353 1.1848246 0
-7.4542937 3.5162773 1.2977804 0
-6.6703386 3.6368928 1.2100898 0
-6.2143831 3.6584604 1.2541283 0
-5.7729964 3.7398121 1.2657222 0
-5.3427687 3.7191517 1.2226489 0
-4.7474627 3.8454812 1.3222042 0
-4.1243577 3.6848371 1.2513523 0
16.098566 3.5065117 1.1487496 0
-26.843607 4.2298751 1.4216541 0
-26.292994 4.4780626 1.3952767 0
-8.5972605 4.1186862 1.1645834 0
-8.1429386 4.1683021 1.1172981 0
-6.2721353 4.0783315 1.3106964 0
-5.6694517 4.0807505 1.2013328 0
-5.1914773 4.2153487 1.1571265 0
-4.8118143 4.2079725 1.2111529 0
-4.2107482 4.0455165 1.4408548 0
83.449097 4.2138147 1.4576249 0
83.508041 4.466598 1.4588816 0
-26.162716 4.7064576 1.3906292 0
-6.0477858 4.9195337 1.0888903 0
-5.6812925 4.6354365 1.0237575 0
-5.1702456 4.7415795 1.2231777 0
-4.7173557 4.7348495 1.1004561 0
-4.4135485 4.8859396 1.0352207 0
83.555908 4.8628311 1.4601032 0
-26.928698 5.3055215 1.4358892 0
-5.3248644 5.0352774 1.0232006 0
83.613998 5.2615962 1.4615344 0
83.733444 6.8276997 1.4655833 0
83.855156 7.1014786 1.4680964 0
83.906219 7.769927 1.4700162 0
-7.3542671 8.4823532 1.1748999 0
-5.6744165 8.3604469 1.4133028 0
83.926491 8.1708965 1.4710284 0
-7.7379141 8.868103 1.3366132 0
-7.1305208 8.7075033 1.3031484 0
-6.7406259 8.7510395 1.2209705 0
-6.4249277 8.7264853 1.2702513 0
-5.6899743 8.9299955 1.4186898 0
-5.142405 8.6746292 1.3092905 0
-7.9482627 9.2525578 1.0629514 0
-7.1690998 9.2472467 1.2462126 0
-6.0915241 9.304285 1.3595744 0
-5.8269434 9.1556215 1.2263994 0
-4.8517218 9.3514366 1.4273953 0
15.913132 9.3519802 1.2873324 0
16.085033 9.2235804 1.2932293 0
-8.5572338 9.9008083 1.1406943 0
-6.3483372 9.601038 1.4073471 0
-5.5711913 9.6700525 1.1679313 0
-5.2503452 9.7533636 1.2565734 0
-4.9319415 9.5270491 1.3113141 0
15.484153 9.9459705 1.283519 0
15.882876 9.9580431 1.3075153 0
16.174841 9.9340372 1.3239779 0
-5.6803141 10.333068 1.1300328 0
-5.1961741 10.270389 1.2232302 0
-4.8074946 10.084743 1.2849436 0
-4.1697211 10.361596 1.2348524 0
-3.9187992 10.395272 1.3189752 0
15.448439 10.023408 1.2843562 0
15.684719 10.228281 1.3060503 0
84.24807 10.181917 1.4804178 0
-7.7305479 10.895103 1.164575 0
-7.375627 10.806592 1.2331886 0
-5.4238405 10.838401 1.1616781 0
-4.5360751 10.671641 1.2799982 0
-4.2036018 10.835107 1.0986803 0
-3.838253 10.800709 1.2185698 0
-3.2358403 10.883754 1.3578993 0
-2.9626317 10.578867 1.1496041 0
84.301537 10.72554 1.4825121 0
-8.1452427 11.311751 1.3373176 0
-7.6026874 11.001943 1.1657952 0
-7.0069981 11.033445 1.1392999 0
-6.9582381 11.145737 1.1453427 0
-5.6430006 11.32385 1.1026944 0
-5.3596854 11.182873 1.0807313 0
-4.9085207 11.238976 1.2832005 0
-4.1334281 11.060079 1.0287864 0
-3.6698687 11.168738 1.4375708 0
-5.5548339 11.7564 1.1333733 0
-5.1847115 11.637475 1.2098317 0
-4.9506812 11.573875 1.0971165 0
-3.9652846 11.745684 1.0803826 0
-5.1933985 12.037741 1.142786 0
20.16263 12.603174 1.243607 0
84.55854 12.834461 1.4920411 0
-3.7058952 13.251303 1.1996117 0
84.5644 13.243274 1.4932278 0
24.254614 16.491808 1.0225554 0
24.273613 16.837889 1.029954 0
16.146467 17.490002 1.2449677 0
23.983248 17.077715 1.026464 0
24.019339 17.178164 1.0295352 0
15.950884 17.657749 1.244549 0
16.062342 17.56184 1.2447584 0
-5.0131001 18.233488 1.3189554 0
-4.9031696 18.274311 1.3196994 0
80.41021 20.407824 1.4472234 0
80.543747 20.172592 1.4484798 0
24.127119 20.575001 1.1056161 0
80.395782 20.658266 1.4480611 0
24.419353 21.352806 1.1310927 0
24.625422 21.332254 1.1360483 0
-5.2415919 21.98909 1.1821645 0
-5.1557875 22.036003 1.1835253 0
-3.9926527 22.947487 1.2181717 0
-4.7826586 23.36702 1.2474799 0
-4.2985754 23.399714 1.2443397 0
-3.9272249 23.424606 1.2422463 0
-5.7901864 23.812695 1.2818123 0
-5.0233994 23.614689 1.262762 0
-4.748126 23.767899 1.2677338 0
-4.4727426 24.354923 1.2952102 0
15.55765 24.939558 1.0247887 0
24.142338 24.884117 1.2090583 0
15.287059 25.285852 1.0301634 0
15.789967 25.116848 1.0343513 0
16.269459 25.158493 1.0445768 0
24.249424 25.139242 1.2180623 0
13.580387 27.420818 1.0668776 0
19.858442 28.707663 1.2172945 0
-4.1145191 29.488356 1.0380507 0
24.17754 29.203476 1.3222722 0
-4.3715096 29.970425 1.055989 0
-4.6158233 30.33227 1.0697393 0
-4.2736826 30.281094 1.0662494 0
-3.8386369 30.246977 1.0630387 0
-4.0577593 30.851458 1.0849556 0
-3.5830464 30.936348 1.085863 0
59.163315 30.920094 1.1643897 0
-3.8074384 31.179373 1.095216 0
59.143929 31.253757 1.1667981 0
-3.5063186 31.590805 1.1082684 0
49.798889 32.767136 1.039698 0
50.141819 32.554718 1.0426766 0
15.409647 33.486229 1.2855579 0
50.102562 33.407459 1.0502858 0
15.30105 33.527203 1.2852787 0
15.613305 33.513027 1.2893968 0
49.849136 33.691673 1.0493783 0
50.011189 33.572788 1.050565 0
24.237085 34.348198 1.4663372 0
50.237873 34.173073 1.0597101 0
22.935579 34.740631 1.4520285 0
23.077202 34.601139 1.4507023 0
24.069523 35.255234 1.4890218 0
13.788198 35.972725 1.3436307 0
13.68222 36.03455 1.3443286 0
18.481487 36.315002 1.4212471 0
18.716516 36.212284 1.4218054 0
45.248627 36.289642 1.0116112 0
44.809059 36.622833 1.0093075 0
45.133656 36.540787 1.0127981 0
-4.0907183 42.230595 1.479948 0
-3.8901248 42.199413 1.4782031 0
-56.036133 54.814796 1.3674309 0
-55.810387 54.936367 1.3661046 0
-2.5367658 59.661148 1.0414898 0
-2.3719294 60.028152 1.0477726 0
-2.1128864 60.834122 1.0616648 0
-1.7316105 60.646114 1.0581743 0
-1.4824474 60.500767 1.0555215 0
-1.3037294 61.04092 1.064876 0
-0.74362427 61.714066 1.0764644 0
-0.26261607 61.83609 1.0785238 0
0.027856745 62.102684 1.0831662 0
0.43418515 65.944672 1.1502532 0
0.84632689 65.772682 1.1473211 0
54.448681 65.935532 1.491762 0
0.22751744 66.085686 1.1526965 0
0.64202666 66.010971 1.15144 0
52.784779 66.408607 1.4798942 0
53.055614 66.320518 1.4816394 0
53.919575 66.136856 1.4886204 0
54.175293 66.025879 1.4899468 0
47.878304 67.249016 1.4401027 0
48.28344 67.145882 1.4427555 0
48.693321 67.047165 1.4455478 0
23.64785 71.804718 1.3187387 0
1.8318071 72.461952 1.2643919 0
2.0837774 73.307365 1.2792615 0
2.3271289 73.712189 1.2864517 0
2.5864232 74.499901 1.3003439 0
2.8289578 74.747238 1.3048117 0
3.1755109 74.877335 1.3073249 0
3.5418785 75.149261 1.3123511 0
4.0735979 76.488075 1.3361562 0
4.3339696 76.830284 1.3423693 0
4.5979619 77.195549 1.3490012 0
28.235857 80.227432 1.4837338 0
28.545383 80.300369 1.4867357 0
5.7415981 81.421432 1.4239069 0
6.1061301 81.226555 1.4209751 0
6.5306005 83.452255 1.4602777 0
10.652246 -91.032936 1.5989894 0
11.076164 -90.98246 1.5989894 0
8.3693466 -86.595383 1.5177311 0
8.0218134 -85.812889 1.5035597 0
-1.7614577 -57.098183 1.99318 0
-0.87304783 -57.034714 1.9902483 0
-1.0509455 -56.963745 1.9878753 0
-1.2132818 -56.196804 1.9612119 0
-2.5843122 -55.694256 1.9452978 0
-2.0721602 -55.799671 1.9482296 0
-1.8919171 -55.662075 1.943204 0
-2.4039402 -55.390232 1.9344093 0
13.37254 -53.183224 1.91333 0
13.597707 -53.023003 1.90984 0
11.86573 -52.679375 1.8840144 0
12.316279 -52.783756 1.8910875 0
12.797244 -52.602016 1.8888073 0
13.801802 -52.798729 1.9040468 0
14.137377 -51.137611 1.8510692 0
13.574913 -50.648499 1.8294315 0
13.778823 -50.456738 1.8248249 0
37.772007 -40.628555 1.935526 0
37.868626 -40.222225 1.9274759 0
37.95763 -39.700775 1.9164011 0
22.628338 -39.089363 1.5755727 0
28.370409 -39.300396 1.6909504 0
28.720453 -39.27647 1.6974649 0
29.20488 -39.288612 1.7078416 0
29.685499 -39.296337 1.7181255 0
30.188543 -39.197525 1.7260361 0
30.681541 -39.200363 1.7366688 0
31.260855 -39.307514 1.752141 0
31.772381 -39.326271 1.7638205 0
32.280975 -39.320934 1.7748953 0
32.787502 -39.328339 1.7863655 0
33.193462 -39.342621 1.7958583 0
33.70364 -39.32056 1.8068167 0
34.165298 -39.241478 1.8152623 0
34.50415 -39.255848 1.8234288 0
38.045937 -39.296848 1.9083743 0
18.449835 -38.913715 1.5022141 0
18.739182 -38.896366 1.5060296 0
19.261156 -38.891129 1.5138702 0
19.79534 -38.905643 1.5226883 0
20.257324 -38.903126 1.5299939 0
20.714785 -38.918308 1.5379044 0
21.168154 -38.761509 1.5406034 0
21.741419 -38.800861 1.5514921 0
38.144012 -38.792351 1.8981603 0
21.6759 -38.1311 1.5299939 0
38.232323 -38.281029 1.8876438 0
40.217201 -38.00045 1.9305005 0
40.677498 -38.07399 1.9439718 0
41.313229 -38.191715 1.9630269 0
41.799858 -38.282864 1.9776846 0
42.264515 -38.34565 1.9911557 0
21.698284 -37.892811 1.5231537 0
38.354939 -37.813389 1.8791751 0
38.991291 -37.76107 1.8937864 0
39.302452 -37.830143 1.9032789 0
39.753807 -37.910789 1.9166105 0
21.771902 -37.203526 1.5036099 0
22.59926 -37.016308 1.5128233 0
44.33992 -34.488861 1.9599557 0
43.926762 -33.726589 1.9322687 0
44.155014 -33.252533 1.9285927 0
44.296013 -32.821259 1.9235206 0
44.642181 -32.65107 1.9297327 0
44.880825 -32.400871 1.9313381 0
18.447992 -30.875324 1.8824196 0
18.544899 -30.817215 1.8824196 0
20.245834 -30.067493 1.8971784 0
-3.5666628 -29.057919 1.5317688 0
-3.4301639 -29.078407 1.5319781 0
-2.2394564 -29.38418 1.5419217 0
-1.5390371 -29.003542 1.5196267 0
-3.1610355 -28.70789 1.5110961 0
-2.9119914 -28.912018 1.5203595 0
-1.6301411 -28.998564 1.5196267 0
-2.570106 -28.414593 1.9916868 0
-2.4825609 -28.442402 1.993082 0
-3.404671 -26.580236 1.8704966 0
-5.0351486 -18.805527 1.6990139 0
-4.3599067 -18.533537 1.6615372 0
-3.3265269 -18.734789 1.8117331 0
-4.1233068 -18.276199 1.6349547 0
-3.7197292 -18.378254 1.7622714 0
-3.4771292 -18.411383 1.7451649 0
-6.5768914 -17.126846 1.9232191 0
-5.0442586 -17.224339 1.5660144 0
-4.9436359 -17.176765 1.5595648 0
-6.6426063 -16.83721 1.6433208 0
-5.2231154 -16.780045 1.8421052 0
48.776844 -14.694733 1.7772684 0
-3.5952482 -13.813231 1.6832992 0
-3.5678701 -13.152746 1.6674163 0
-3.4330416 -13.1503 1.9033313 0
-5.5331011 -12.677786 1.6925213 0
-5.4493527 -12.746282 1.8802727 0
-3.5955739 -12.835852 1.7719361 0
-3.4553578 -12.827443 1.8602805 0
23.015406 -8.51581 1.7126609 0
23.160181 -8.3372765 1.7179066 0
23.36969 -7.8441224 1.720418 0
23.556391 -7.6640043 1.7288445 0
-3.7516565 -7.0975604 1.55115 0
-3.375237 -7.0828223 1.657472 0
-4.7451572 -6.8182106 1.9066851 0
-3.6755712 -6.8519201 1.5020485 0
-3.4390743 -6.9736218 1.5020485 0
-4.2606535 -6.0631785 1.6997302 0
-3.117893 -6.2222624 1.6513345 0
-2.684094 -6.1199336 1.6081142 0
-4.7928939 -5.9927883 1.7620771 0
-3.6453447 -5.646009 1.6389122 0
-3.1693034 -5.8056498 1.593188 0
-5.6824918 -5.0264244 1.9075103 0
-4.9106007 -5.0744371 1.7486115 0
-29.319511 -4.8343129 1.5547965 0
-5.0297327 -4.9784684 1.7524822 0
-4.8740382 -4.7000861 1.6672249 0
-4.0493484 -4.5519681 1.507012 0
16.868994 -4.5818257 1.5251093 0
17.286734 -4.8112617 1.5656658 0
-6.1533856 -4.2146106 1.6624697 0
-5.6489215 -4.15272 1.736354 0
-5.1847663 -4.0202808 1.5035728 0
-4.7976775 -4.3526635 1.6133019 0
-4.4810858 -4.2450504 1.527011 0
16.830631 -4.2443137 1.7327646 0
17.047052 -4.07127 1.8370528 0
-29.590633 -3.5871224 1.5596116 0
-6.2279992 -3.9624925 1.7472165 0
-5.5965862 -3.7449675 1.633561 0
-5.4422946 -3.6158822 1.623152 0
-4.8361998 -3.8480353 1.5291884 0
17.091539 -3.8860548 1.8371922 0
-30.03294 -3.1204882 1.5799179 0
-29.925999 -3.2953677 1.5753123 0
-6.6874137 -3.2617524 1.8705506 0
-5.3610606 -3.4748161 1.5808789 0
15.838726 -3.1260138 1.8469207 0
16.120117 -3.375005 1.7259741 0
-29.871399 -2.8204982 1.5699391 0
-6.1433592 -2.949858 1.7122455 0
15.910709 -2.9350221 1.7667785 0
16.166948 -2.7341986 1.7183084 0
-10.79867 -2.3664668 1.7433057 0
-7.394094 -2.1591263 1.9369471 0
-5.6740165 -2.0457489 1.5140371 0
14.444597 -2.1375096 1.6725739 0
35.316109 -2.2165732 1.8519602 0
35.547523 -2.0630512 1.8635787 0
-8.146348 -1.5808768 1.703045 0
-7.3914604 -1.7214965 1.8802171 0
-6.8668709 -1.972216 1.79565 0
34.284389 -1.6712966 1.7963794 0
34.603409 -1.686543 1.8131268 0
35.314259 -1.9429706 1.8510181 0
-8.0843992 -1.4933124 1.8868893 0
-7.4502521 -1.1521893 1.867637 0
-6.5900807 -1.0584096 1.6767577 0
-6.2546015 -1.193063 1.5758101 0
-7.1170063 -0.66384697 1.6522124 0
-6.7139559 -0.7358821 1.6180916 0
-6.2019782 -0.72434074 1.5580441 0
-5.963522 -0.52928656 1.502753 0
-7.0194526 -0.13049008 1.6097497 0
-6.8122959 -0.26983711 1.6768069 0
-6.299161 -0.35840958 1.5762984 0
20.169506 -0.26531231 1.7605461 0
-29.161285 0.41105258 1.5259072 0
14.153943 0.42171574 1.8580384 0
-29.128124 0.63502443 1.5243894 0
14.19362 0.5893954 1.8819993 0
-29.034309 1.3406796 1.5207434 0
-28.972824 1.2637079 1.517324 0
-6.707355 1.2940173 1.5659593 0
-29.217068 1.7751961 1.5315174 0
-8.8993244 1.6110566 1.6266011 0
-8.4424667 1.5759659 1.6600382 0
-7.1114469 1.9426715 1.7938336 0
-6.7903452 1.8688338 1.6053156 0
-6.3053827 1.86693 1.578275 0
-28.718315 2.0118392 1.5062288 0
-26.917269 2.343714 1.8860056 0
-7.6332989 2.2410612 1.9125633 0
-7.1622825 2.2091615 1.6823901 0
-6.848278 2.2291281 1.7498511 0
-6.3087502 2.2649925 1.6807555 0
-5.9822378 2.2460728 1.5812014 0
16.311775 2.3975437 1.7278137 0
-28.569979 2.6087317 1.5009952 0
-26.805489 2.7555096 1.88096 0
-7.6735935 2.7364962 1.7712255 0
-7.2453384 2.8389063 1.7518425 0
-6.7788997 2.7596107 1.7789196 0
-6.2690682 2.7847059 1.7111677 0
-5.7263308 2.9128788 1.6040509 0
15.895504 2.8251069 1.8434696 0
16.137091 2.6062331 1.7703238 0
-27.101063 3.384115 1.9064445 0
-26.880369 3.1423271 1.8890982 0
-8.064332 3.3008261 1.6068664 0
-7.704565 3.2546113 1.8260077 0
-7.2551222 3.2459431 1.6882236 0
-6.7017908 3.2197521 1.7829279 0
-6.3165865 3.3392797 1.771548 0
-5.7432876 3.2955444 1.6113476 0
-5.2291098 3.3670511 1.5563504 0
-4.9603314 3.4377196 1.5150185 0
16.122309 3.2443278 1.7234652 0
25.071571 3.4102669 1.7659549 0
-27.103708 3.7618864 1.9101181 0
-26.645721 3.6200531 1.8770071 0
-8.1280184 3.5342402 1.7134647 0
-7.8475456 3.7059836 1.6775926 0
-7.094934 3.7211695 1.6931798 0
-6.8755283 3.6796579 1.7581488 0
-6.1965675 3.7081723 1.6071478 0
-5.770493 3.735446 1.6608614 0
-5.2691021 3.6945593 1.6035844 0
-4.7925401 3.8150439 1.5268368 0
-27.082756 4.046288 1.9114668 0
-7.8522081 4.1360993 1.7157544 0
-6.7614655 4.078382 1.9761595 0
-6.463716 4.0943909 1.8957 0
-5.8973212 4.0278387 1.6376436 0
-4.9012046 4.0764408 1.5837897 0
-4.4856982 4.2785425 1.5567205 0
-5.2504554 4.8538065 1.7971218 0
-4.8563595 4.5264735 1.5215689 0
-5.814724 5.4261737 1.9709861 0
-5.3768549 5.0768037 1.696131 0
-7.0535364 7.9661555 1.6776032 0
-6.9415188 7.9646282 1.6657141 0
-7.1136918 8.2278271 1.8447534 0
-6.9140592 8.0104342 1.8573409 0
-5.6487851 8.3923368 1.7761348 0
-7.738225 8.7649574 1.6365365 0
-7.1634517 8.6986904 1.7151046 0
-6.7054038 8.851388 1.6672232 0
-6.321516 8.836072 1.71428 0
-5.6556048 8.6887264 1.7825115 0
-5.1693964 8.6683865 1.7264886 0
-4.9632945 8.7649317 1.8888916 0
15.497388 8.9930716 1.8781675 0
15.754608 8.8376999 1.7338736 0
16.21664 8.8576117 1.8396715 0
-8.2964087 9.3279924 1.6009626 0
-7.5166812 9.2769051 1.883471 0
-7.3374915 9.2279339 1.8596929 0
-6.8113155 9.1518831 1.7993093 0
-6.266552 9.23209 1.7603462 0
-5.8824739 9.2445822 1.7063167 0
-4.6123519 9.0617361 1.9671135 0
15.414485 9.2652931 1.8852755 0
15.552734 9.2878466 1.5806566 0
16.368784 9.3015814 1.6429439 0
-8.6917086 9.6923513 1.5925885 0
-7.5403714 9.7019043 1.9385358 0
-6.3293643 9.6010427 1.6093978 0
-5.7304993 9.5973635 1.630785 0
-5.2251892 9.6811218 1.7418824 0
-4.8890991 9.8431454 1.6937714 0
-3.20965 9.9854679 1.6536165 0
15.231999 9.7085705 1.893481 0
15.683237 9.7978687 1.6136886 0
-8.214798 10.359402 1.61745 0
-5.7269626 10.281548 1.6472529 0
-5.226614 10.214977 1.7095718 0
-4.8242841 10.133068 1.730852 0
-4.2763224 10.471905 1.5829549 0
-3.8020949 10.377419 1.5464914 0
-3.2622557 10.133116 1.8217086 0
15.428776 10.178246 1.6129042 0
15.525688 10.037302 1.6132529 0
-4.7300262 10.691648 1.8442997 0
-4.2942519 10.646441 1.665944 0
-3.6829729 10.724616 1.6481851 0
-3.4818537 10.608793 1.7608262 0
-5.1114454 11.318257 1.6931814 0
-4.882926 11.245564 1.9341558 0
-8.1570606 11.697934 1.745169 0
-5.347723 11.757326 1.7628124 0
-4.7296929 11.575912 1.9729514 0
16.36001 16.951719 1.6440206 0
15.815969 17.217449 1.6314644 0
16.203403 17.227301 1.6504383 0
15.747755 17.741358 1.6554606 0
16.142563 17.794462 1.6766666 0
16.547022 17.791479 1.6956404 0
-4.68049 18.275309 1.6462848 0
15.783383 18.329746 1.6881067 0
16.094711 18.193062 1.6952219 0
-4.90693 18.557213 1.6751333 0
15.621376 18.567797 1.6934081 0
-5.1819582 21.876875 1.5687532 0
-4.8609142 21.875986 1.563661 0
-5.0355759 22.184353 1.5873784 0
-4.7645693 22.293407 1.9902885 0
-4.4521308 22.146938 1.9721601 0
85.710541 22.31044 1.5450965 0
-4.679739 22.734863 1.6197453 0
-3.942446 22.866199 1.6191872 0
85.790558 22.604755 1.5477492 0
-5.0111713 23.244154 1.659367 0
-4.7137494 23.265032 1.6565768 0
-4.2784643 23.266441 1.6508844 0
15.763024 24.93659 1.5435618 0
15.308805 25.160238 1.5409799 0
15.572427 25.063961 1.5439107 0
16.171219 25.062965 1.5606581 0
13.686194 27.380102 1.6016896 0
19.12751 28.842695 1.8112427 0
-4.6399279 29.354982 1.5550059 0
-4.08108 29.365288 1.5512377 0
19.164482 29.196316 1.827781 0
24.285774 29.114983 1.9844747 0
-4.5288815 29.869354 1.5807551 0
-4.25179 29.767509 1.5733758 0
-3.7987049 29.640478 1.563589 0
-4.6635456 30.119478 1.5947813 0
-3.7191575 30.061295 1.584942 0
-3.9961119 30.78734 1.624508 0
-3.6849763 31.365137 1.6525601 0
-3.4327016 31.339466 1.649734 0
-3.6063263 31.551189 1.6617712 0
15.756637 33.439121 1.9347556 0
15.783493 33.68071 1.9468278 0
16.077522 33.582996 1.9487817 0
44.712601 33.845474 1.9566054 0
35.255371 35.462818 1.744556 0
38.484749 37.639492 1.8781512 0
39.991234 37.569897 1.9144467 0
40.218784 37.537437 1.9194723 0
22.652885 38.392124 1.5549819 0
22.696959 38.741837 1.5662894 0
22.963211 39.479774 1.5932318 0
22.94306 39.731709 1.6004908 0
22.865755 40.310181 1.6166842 0
23.110508 40.313332 1.6210117 0
16.652866 40.94202 1.54179 0
17.132889 40.849762 1.54521 0
22.349304 40.571423 1.6158468 0
22.732702 40.51841 1.6207325 0
16.496309 41.110954 1.54521 0
17.061287 41.039948 1.5503752 0
17.695724 44.705982 1.6773396 0
-5.3213062 51.632984 1.810935 0
-4.6420946 52.17815 1.8276168 0
-4.5170217 52.646538 1.843531 0
-4.1863074 52.636272 1.8422281 0
-3.7926123 52.841881 1.8483469 0
57.485622 65.460686 1.5198253 0
57.773357 65.393784 1.5222687 0
58.087482 65.334488 1.5251309 0
56.901314 65.620247 1.5152179 0
57.186085 65.531548 1.5173122 0
48.746384 95.318275 1.8678962 0
104.23431 -62.720039 2.1225617 0
-0.64992458 -60.865524 2.1239135 0
104.81624 -58.703842 2.0961385 0
-1.5924354 -57.475063 2.0061626 0
107.01431 -55.072475 2.0999434 0
107.33638 -54.812431 2.1028752 0
107.6329 -54.538231 2.1053185 0
107.93805 -54.28875 2.1081109 0
108.24674 -54.020824 2.1108336 0
108.73497 -53.625824 2.115406 0
109.26603 -53.247044 2.1208165 0
46.872196 -52.836922 2.4648118 0
47.090168 -52.5919 2.463486 0
109.66815 -52.829521 2.1239579 0
47.223038 -52.40807 2.4618106 0
110.22969 -52.462772 2.1300313 0
110.52778 -52.179398 2.1326141 0
110.79981 -51.882793 2.1347084 0
12.184423 -42.11697 2.2952456 0
11.945632 -41.782475 2.2749393 0
57.574966 -41.157558 2.4697676 0
58.068993 -41.235756 2.4854023 0
11.340568 -40.863503 2.2199864 0
51.107979 -40.013763 2.2649775 0
48.642399 -39.527763 2.1870816 0
49.268677 -39.665527 2.2071137 0
49.830994 -39.734219 2.2239356 0
50.293934 -39.845631 2.239012 0
50.70467 -39.912498 2.2517157 0
17.350252 -39.080395 2.2383738 0
19.214758 -39.00581 2.2762651 0
19.822514 -39.011402 2.2907798 0
20.281727 -39.007412 2.3015959 0
20.592009 -39.014885 2.3094811 0
21.102961 -39.086246 2.3253911 0
22.193222 -39.197361 2.3581536 0
22.564987 -39.139381 2.3651664 0
23.203072 -39.117905 2.3810766 0
25.451357 -39.371727 2.4544516 0
25.727652 -39.130283 2.4517651 0
27.001871 -39.179485 2.4911916 0
45.986511 -39.065105 2.1054168 0
46.344196 -39.11903 2.1161659 0
46.693474 -39.163395 2.1264963 0
47.28054 -39.283432 2.144923 0
47.812908 -39.354885 2.1608372 0
48.264275 -39.472801 2.1756344 0
11.375204 -38.643433 2.1086159 0
11.62055 -38.59539 2.1098719 0
19.510612 -38.986919 2.2822664 0
20.789669 -38.943817 2.3110514 0
21.279495 -38.843052 2.3186226 0
21.546864 -38.751919 2.3212044 0
22.699129 -38.543427 2.3417201 0
25.951548 -38.93594 2.4497414 0
26.310596 -38.694221 2.4497414 0
26.684664 -38.980602 2.4731879 0
43.304474 -38.564049 2.0232635 0
43.807289 -38.644737 2.0382702 0
44.183949 -38.730965 2.0501361 0
44.731232 -38.839321 2.0670276 0
45.232201 -38.913937 2.0819645 0
45.590141 -38.975536 2.0928531 0
12.714023 -38.11655 2.1032774 0
23.055454 -38.046719 2.3289502 0
42.776104 -38.444283 2.006721 0
11.589091 -37.843128 2.0716665 0
12.772509 -37.894711 2.0932288 0
14.611533 -37.537395 2.1085112 0
22.092127 -37.910572 2.2970252 0
11.55916 -37.32571 2.045289 0
12.944323 -37.240593 2.0637114 0
13.273952 -37.210918 2.0680032 0
13.767854 -37.244392 2.0784702 0
14.823872 -37.281834 2.1001375 0
15.299424 -37.236412 2.107255 0
22.870491 -37.242306 2.2879188 0
11.76594 -36.780323 2.0212984 0
12.56885 -36.529339 2.0220518 0
13.332531 -36.937798 2.0555468 0
13.90194 -36.724304 2.0554073 0
14.752666 -36.871899 2.078784 0
15.040854 -36.936497 2.0875766 0
15.728266 -36.966167 2.1028588 0
23.236908 -36.691399 2.2735786 0
61.429398 -36.5891 2.4951742 0
15.130462 -36.498058 2.0681078 0
15.659608 -36.175388 2.0633628 0
16.880878 -36.042187 2.0832851 0
17.24555 -36.114895 2.0949037 0
61.33073 -36.269737 2.4865193 0
61.596046 -36.165966 2.4926617 0
13.869424 -35.952888 2.0170279 0
15.054066 -35.99332 2.0421491 0
16.647936 -35.985447 2.0754347 0
17.44117 -35.972122 2.0926008 0
61.585323 -35.783875 2.4856119 0
14.971532 -35.482079 2.0157719 0
61.74773 -35.491032 2.4854023 0
52.224041 -34.236904 2.1789851 0
52.64621 -34.277756 2.1921072 0
52.434776 -33.905922 2.1788454 0
52.771599 -33.777519 2.1863139 0
53.168217 -33.686962 2.1962953 0
-3.7882421 -26.661287 2.3518105 0
-3.2357044 -26.63406 2.3431449 0
-4.0578523 -26.492983 2.3406546 0
-4.1033125 -25.977758 2.2967281 0
-3.2622933 -19.082245 2.3710899 0
-3.5001242 -18.882627 2.3520784 0
-3.3956912 -18.974228 2.360853 0
-6.1967087 -18.185442 2.3530533 0
-3.928638 -18.231949 2.2840753 0
-6.1147799 -17.772865 2.301868 0
-5.7297516 -17.808857 2.2911437 0
-5.3108244 -17.540504 2.2443457 0
-6.73066 -17.335121 2.2774131 0
-5.3373752 -17.373444 2.2256999 0
55.158173 -16.14711 2.0053251 0
55.394356 -15.848713 2.0103507 0
55.891563 -15.70743 2.0257065 0
56.125507 -15.583137 2.032407 0
-3.5753717 -14.013533 2.2830045 0
-3.5768082 -13.585279 2.2174065 0
-3.4384811 -13.726471 2.4866419 0
42.273144 -13.600956 2.3247631 0
42.521194 -13.53356 2.3360677 0
-5.3668861 -13.086672 2.2326326 0
-3.6015062 -13.173695 2.1554582 0
-3.4223437 -13.255949 2.4055483 0
42.315048 -13.250959 2.3213091 0
42.746536 -13.093197 2.3404641 0
-5.3879967 -12.979681 2.2182407 0
-3.5747261 -12.834541 2.2451138 0
-3.4460609 -12.851608 2.3376517 0
-8.3401718 -12.387934 2.0920501 0
22.654472 -9.6077051 2.1486795 0
22.459003 -9.0446835 2.1140497 0
22.770849 -9.3008022 2.1477962 0
22.485743 -8.9780054 2.1140497 0
22.952677 -8.9158506 2.150074 0
23.282257 -8.5875244 2.1668661 0
23.325058 -8.3011827 2.161881 0
23.515388 -8.0570145 2.1705265 0
23.520493 -7.936697 2.1675632 0
-6.1666713 -7.4572253 2.436393 0
-5.8454437 -7.1264806 2.3115726 0
-6.2095728 -6.7566843 2.2760012 0
-5.6669202 -6.8641095 2.2072952 0
-5.348166 -6.51823 2.0902052 0
40.029057 -6.8425727 2.125747 0
-6.0576735 -6.450202 2.2269003 0
-5.875432 -6.3649621 2.1557653 0
-8.1080694 -5.1719837 2.4213474 0
16.706976 -5.1438284 2.2780488 0
-8.369812 -4.676125 2.4138248 0
-7.7546773 -4.7795067 2.2933786 0
16.785196 -4.7885542 2.2920783 0
-7.7741981 -4.3746209 2.2450531 0
16.711708 -4.2876711 2.3085494 0
-29.279303 -3.8554153 2.0617225 0
-7.2030482 -3.5810583 2.0232954 0
16.850515 -3.9264684 2.3368721 0
17.086229 -3.8264022 2.2687602 0
17.765713 -3.8961051 2.227284 0
15.815572 -3.1382608 2.259336 0
16.259663 -3.0434649 2.3180671 0
16.62896 -3.0064056 2.3681695 0
16.156012 -2.7889564 2.0364966 0
-9.2148609 -2.1249876 2.3809536 0
-8.607522 -2.1806424 2.1179252 0
-8.1746149 -2.1647429 2.109252 0
-7.9196033 -2.0762036 2.0493634 0
14.455521 -2.1219397 2.1950815 0
-9.624136 -1.947053 2.2558091 0
-9.2654343 -1.9759144 2.3166826 0
-8.6398125 -1.8926626 2.030858 0
-8.0224991 -1.6330104 2.040839 0
-7.8870988 -1.9860921 2.0458636 0
-8.0518074 -1.4833667 2.0443869 0
-7.9920406 -1.1281004 2.030164 0
34.627647 -1.0532938 2.4191546 0
34.733765 -0.89786446 2.4262695 0
34.475529 -0.19386382 2.4074354 0
34.619614 -0.085955992 2.4174805 0
14.141319 0.41598251 2.3595772 0
14.174817 0.57021457 2.3659742 0
-29.717182 1.430768 2.0770688 0
-29.123543 1.3116952 2.0352149 0
-8.1220369 2.2935662 2.1233807 0
16.555548 2.3739409 2.3437862 0
-27.207405 2.9213746 2.3898103 0
-7.6171012 2.7596257 2.0079517 0
15.306659 2.7484705 2.4555831 0
16.451244 2.6992178 2.3362525 0
16.658495 2.5270908 2.1614599 0
-27.24687 3.225585 2.39626 0
15.354079 3.1976545 2.3999536 0
15.781964 3.1523027 2.255161 0
16.298532 3.1946685 2.03339 0
-27.327494 3.5340934 2.4065442 0
-6.9744148 3.8819799 2.0075955 0
16.285774 3.7457974 2.3418193 0
-28.977936 4.4699349 2.0469339 0
-6.8344917 4.2202768 2.0203516 0
-29.24205 4.7409754 2.0681398 0
-28.963751 4.5609446 2.0469339 0
-28.341059 5.3379951 2.1801143 0
-5.8778467 5.4860349 2.0223138 0
-5.8226638 5.8869991 2.0524654 0
-6.9169507 7.7220898 2.0057843 0
-8.0022898 8.4491777 2.4633377 0
-7.8252978 8.4664516 2.3020446 0
-7.1382446 8.1389532 2.2687292 0
-6.9074016 8.2444582 2.2964563 0
-5.6014323 8.4301395 2.2515461 0
-5.222024 8.3444872 2.400326 0
-4.7242136 8.3408108 2.2688847 0
-8.0285625 8.7105007 2.0803051 0
-7.6951141 8.7510204 2.0462701 0
-7.1696711 8.7739143 2.2401242 0
-6.7429194 8.8718252 2.3072298 0
-6.2531085 8.9879913 2.1189973 0
-5.6702833 8.7217627 2.2420282 0
-5.1842647 8.7695103 2.2253942 0
-4.761807 8.8062983 2.2470596 0
-4.1523852 8.6570187 2.2058702 0
-3.968112 8.6674995 2.1896737 0
15.911963 8.8403826 2.2291365 0
16.144388 8.6776524 2.2445893 0
-8.5925493 9.1850376 2.4354861 0
-8.2675829 9.3438768 2.1914399 0
-7.3097057 9.2504358 2.2108772 0
-6.7596173 9.2445192 2.2909966 0
-6.2992578 9.1036158 2.2003336 0
-5.6432996 9.14678 2.0798178 0
-5.1740313 9.1902599 2.280303 0
-4.8071485 9.2707043 2.2886181 0
15.38752 9.4408836 2.2107098 0
15.908203 9.3262243 2.2583201 0
16.10994 9.1786404 2.2706695 0
-7.3630486 9.6323996 2.2013781 0
-5.5891099 9.8262539 2.1881976 0
-5.1467319 9.7232409 2.1291232 0
-4.8086672 9.8009319 2.2902617 0
15.309402 9.7559958 2.2231402 0
16.039364 9.6372681 2.291631 0
-5.3053102 10.114915 2.2803657 0
-5.2392974 10.699651 2.1994436 0
-4.6329093 10.886573 2.3612339 0
-4.3767557 10.684278 2.2610843 0
-5.5418191 11.238417 2.4263272 0
-5.1707487 11.715014 2.0788772 0
-4.5842862 11.797287 2.3380661 0
-5.1892066 12.333159 2.2310145 0
-4.8118157 12.230059 2.215327 0
-5.0426908 12.795494 2.1706846 0
-4.6399527 12.746286 2.383321 0
-4.4084754 12.531074 2.3338315 0
-3.8673716 12.786138 2.1081109 0
-3.6220059 13.384628 2.4364924 0
-3.4843752 13.369151 2.4276016 0
-3.8049614 13.565553 2.2238722 0
-4.6447463 15.032769 2.2045019 0
15.567684 16.465204 2.3765593 0
15.181799 16.827845 2.3770609 0
15.830289 16.84679 2.2608755 0
16.170938 16.877531 2.1235907 0
14.805758 17.418093 2.3976738 0
15.095889 17.263481 2.4053044 0
15.741738 17.29809 2.042084 0
16.776636 17.168665 2.0959213 0
14.69678 17.731638 2.4155831 0
15.427796 17.766499 2.2623925 0
15.736652 17.570995 2.0594902 0
15.728821 18.338245 2.1095176 0
-5.2675734 21.726313 2.3446431 0
-5.5761118 22.05304 2.3857577 0
-5.0387111 22.347824 2.0000501 0
-5.394805 22.518646 2.0216646 0
-4.6938977 22.832344 2.3088076 0
-4.1229911 22.917671 2.2384157 0
-3.9690232 22.861717 2.0258482 0
-5.4828486 23.312777 2.0910406 0
-4.6993542 23.121378 2.4748156 0
-4.3879323 23.070301 2.3597732 0
-4.6452212 23.688963 2.1077745 0
-4.5491486 24.182127 2.1485631 0
15.429193 24.885796 2.0441437 0
15.650101 24.75095 2.0443668 0
16.008244 24.821753 2.0620015 0
15.347147 25.184254 2.0589321 0
16.352821 25.095261 2.0911596 0
15.38535 25.697479 2.0910199 0
13.600915 27.43516 2.1378965 0
-4.718462 30.766495 2.173193 0
-4.2828526 30.785721 2.1701238 0
59.085976 30.972132 2.3279362 0
-4.5939713 31.241148 2.2047229 0
58.999828 31.161591 2.3283546 0
59.071049 31.436905 2.3350554 0
-4.3899674 31.558578 2.2246733 0
59.119843 31.815781 2.3428032 0
59.199135 32.211182 2.3518074 0
49.923637 32.722015 2.0828018 0
49.664268 33.100071 2.0825226 0
50.043045 33.569229 2.1026249 0
13.874578 35.970116 2.0179698 0
23.899176 35.791412 2.2529583 0
24.040058 35.76915 2.2560983 0
44.648544 36.704449 2.0167022 0
45.098045 36.609161 2.0267534 0
22.94824 39.471382 2.3902879 0
23.226261 39.250092 2.3876708 0
22.675858 39.714432 2.394213 0
15.262904 40.87698 2.2842202 0
15.706587 40.70892 2.284255 0
16.198578 40.668701 2.291687 0
16.736433 40.905308 2.3137376 0
17.195337 40.824627 2.3190587 0
17.569466 40.849037 2.3279033 0
-4.0292988 42.266312 2.2226033 0
-3.8237286 42.215164 2.2189398 0
-1.836779 60.731358 2.1200745 0
-2.1474075 61.423103 2.1445742 0
-2.7364159 61.873859 2.1611166 0
-2.4358275 61.618458 2.1517634 0
-1.6698387 61.623966 2.1510653 0
-1.3896914 61.81279 2.1574171 0
-3.1497931 62.346527 2.178287 0
-1.1076502 62.084435 2.1667001 0
-0.91313523 62.123589 2.1679568 0
-3.4933407 63.237148 2.2099757 0
-0.73001331 63.033512 2.1996453 0
-0.34683272 66.262878 2.3123012 0
-0.56970125 66.63311 2.3252835 0
3.9922259 -75.452568 2.6368663 0
4.2424164 -75.438919 2.6368663 0
1.3991942 -74.189751 2.5895429 0
1.6230688 -74.265152 2.5923345 0
-0.33358005 -73.680405 2.5713251 0
-2.2915287 -56.144165 2.9423275 0
-1.7727594 -56.308155 2.9499338 0
-1.4204948 -56.193111 2.9433742 0
-2.6260514 -55.933746 2.9320695 0
12.921843 -53.96249 2.9054828 0
13.056321 -53.827354 2.9002492 0
12.952241 -52.652084 2.8391209 0
12.985018 -52.100777 2.8114877 0
13.20235 -52.280991 2.82342 0
62.421562 -42.039989 2.6263967 0
59.65509 -41.537663 2.5367746 0
60.186359 -41.627525 2.5538056 0
60.788399 -41.775494 2.5740473 0
61.29454 -41.842979 2.5899613 0
61.852467 -41.939678 2.6079695 0
12.272483 -41.044144 2.9922738 0
58.613514 -41.359081 2.5034108 0
59.16753 -41.474701 2.5215583 0
12.371658 -40.914318 2.9855771 0
13.339817 -40.037373 2.9476297 0
13.335094 -39.613937 2.9194481 0
28.919666 -39.551933 2.5652993 0
32.700203 -39.633003 2.6902776 0
11.969638 -39.138912 2.8586202 0
12.071327 -39.032497 2.8535979 0
17.286148 -39.136135 2.9883673 0
27.336823 -39.275402 2.5053222 0
27.655102 -39.210922 2.5121257 0
28.965658 -39.354706 2.5583909 0
29.184055 -39.267632 2.5615311 0
29.725494 -39.355976 2.5822561 0
30.238398 -39.303196 2.5963519 0
30.77858 -39.375565 2.616693 0
31.313654 -39.420837 2.6359177 0
31.541756 -39.211437 2.6348014 0
32.769966 -39.341599 2.6808572 0
33.272888 -39.438629 2.7016866 0
33.769772 -39.404877 2.7172129 0
34.269554 -39.363026 2.7326696 0
12.281036 -38.581623 2.8279276 0
12.709443 -38.531197 2.833787 0
17.435062 -38.973923 2.9822288 0
12.16542 -38.484661 2.8189986 0
12.76191 -38.298592 2.8195567 0
13.780351 -38.161304 2.833787 0
13.26518 -37.64389 2.7876081 0
13.759113 -37.916016 2.8171849 0
15.547863 -37.545063 2.8382514 0
70.359688 -37.869217 2.7886093 0
70.555878 -37.68943 2.7916803 0
12.821175 -37.118393 2.7426851 0
13.810966 -37.159931 2.7687738 0
14.090379 -37.199993 2.7782607 0
14.739972 -37.061653 2.7857015 0
15.377404 -37.133881 2.8071399 0
70.437538 -37.059204 2.7777209 0
13.845983 -36.904072 2.7528696 0
14.861172 -36.827679 2.7736568 0
15.580809 -36.65044 2.7814698 0
70.094673 -36.611172 2.7598522 0
15.459436 -36.35754 2.7592871 0
70.0877 -36.33012 2.755106 0
70.656479 -36.343868 2.7729745 0
15.478644 -35.793575 2.723572 0
43.381916 -34.628754 2.9065297 0
43.372986 -34.293121 2.895225 0
43.326637 -33.714355 2.8746047 0
43.605957 -33.931488 2.8931315 0
43.635406 -33.301857 2.8742208 0
43.853436 -32.827911 2.8683593 0
44.185383 -32.645142 2.8765936 0
44.650696 -32.66964 2.8970044 0
20.283598 -30.041218 2.531323 0
20.360664 -29.960093 2.5296488 0
-4.0581179 -27.965813 2.9650543 0
-3.9394708 -27.944643 2.9610825 0
-3.5446701 -26.60343 2.8157878 0
-3.2926586 -26.601597 2.8122339 0
-3.950119 -20.106869 2.8730893 0
-4.0213203 -19.971575 2.8563888 0
-5.6805038 -18.224201 2.6760204 0
-4.1276369 -18.158323 2.6103308 0
-6.1987205 -17.71769 2.9653718 0
-5.4663458 -17.925468 2.6270316 0
-4.0660272 -17.894468 2.8988349 0
48.681751 -14.59467 2.6609693 0
-3.5798688 -14.008219 2.8010762 0
48.745457 -14.380653 2.6609695 0
-3.5838737 -13.590668 2.7227173 0
-3.5862978 -13.180806 2.7075844 0
-3.4711201 -13.171208 2.8849826 0
-3.5882928 -12.82856 2.7406037 0
-3.4667749 -12.82816 2.8142927 0
79.196869 -12.61445 2.7988 0
79.621094 -12.309875 2.8117826 0
81.525269 -10.588845 2.8691573 0
81.60788 -10.208735 2.8703439 0
81.691544 -9.7044125 2.8711119 0
22.324268 -9.0680065 2.527498 0
22.560356 -9.3274698 2.5608079 0
81.753937 -9.1996307 2.8712513 0
22.358377 -8.7997465 2.7323005 0
81.8116 -8.6909351 2.8713212 0
22.40872 -8.2648993 2.7512453 0
22.519436 -8.0784416 2.5095191 0
22.657084 -7.9030337 2.6579769 0
23.382505 -7.777071 2.5849192 0
23.796446 -7.6295056 2.6214695 0
76.683044 -7.543582 2.6890757 0
77.025803 -7.8124084 2.7019193 0
75.735176 -7.2121201 2.6550143 0
76.511513 -6.0885582 2.678606 0
75.809875 -5.5647287 2.6527805 0
76.259224 -5.8274055 2.6691136 0
16.725397 -5.0536995 2.7597129 0
16.336569 -4.6928234 2.9886587 0
16.744871 -4.7582641 2.7495701 0
16.308472 -4.2381854 2.8617666 0
16.572948 -4.2532797 2.7024055 0
16.313663 -3.8789551 2.7976246 0
16.654955 -3.6303196 2.6922371 0
17.499626 -3.7867873 2.5095694 0
16.835524 -3.316561 2.71016 0
17.1339 -3.080595 2.7496486 0
17.600441 -3.0228341 2.8208263 0
17.66308 -2.8935814 2.82724 0
14.427838 -2.1325607 2.6942976 0
14.119123 0.40999886 2.8642416 0
14.151027 0.55470216 2.8459926 0
16.019632 1.9960618 2.5492561 0
15.846669 2.2284062 2.7417336 0
16.11565 2.168189 2.6401529 0
15.185782 2.7820866 2.8522103 0
15.691822 2.5849233 2.7478809 0
15.224427 3.1755266 2.7338011 0
15.59016 3.4282048 2.8061545 0
15.781174 3.7080431 2.7700541 0
16.091568 3.6440713 2.6055725 0
-28.736887 4.3563042 2.5386724 0
16.081604 4.0066829 2.9138165 0
-28.70117 4.5355406 2.5379751 0
83.506584 4.7433629 2.9191337 0
-28.253201 5.3558292 2.5116544 0
83.487236 5.2664356 2.9195523 0
83.507355 5.0043616 2.9196918 0
-28.226339 5.5274382 2.512177 0
83.628204 5.7580695 2.9256017 0
83.643188 6.2589946 2.9273696 0
83.75412 6.6643286 2.9323254 0
83.759552 7.1811132 2.9340005 0
-6.8293109 7.7013831 2.562943 0
83.860184 7.7195334 2.9391658 0
-8.1391706 8.2189522 2.914742 0
-7.08989 8.3887091 2.7670672 0
-6.8967681 8.1814737 2.6492898 0
-6.3617625 8.1923656 2.5933063 0
-5.6052914 8.4371548 2.5135684 0
83.906113 8.2495537 2.9425161 0
-8.113946 8.7198219 2.7509105 0
-7.9688849 8.7181149 2.9765596 0
-7.2760277 8.8028154 2.7674229 0
-6.739181 8.7244949 2.6689675 0
-6.1335721 8.9728403 2.6979129 0
-5.6418252 8.6668806 2.5665493 0
-5.1156096 8.8287506 2.5448766 0
-4.5343032 8.9612617 2.529119 0
15.240746 8.8324289 2.7823882 0
15.685864 8.7722549 2.678478 0
16.210695 8.8054361 2.6400926 0
-9.0630417 9.3541098 2.5807419 0
-8.904707 9.2771721 2.6760519 0
-7.3331556 9.0311823 2.8885474 0
-6.7438884 9.2570992 2.8437111 0
-6.3441548 9.1860981 2.771558 0
-5.1334481 9.1593628 2.6392019 0
-4.8118014 9.1694078 2.5871887 0
-4.1911483 9.1303596 2.5300555 0
15.232334 9.2903605 2.7781236 0
15.751317 9.2310305 2.5591152 0
-9.4097004 9.6368303 2.6087406 0
-7.0560131 9.7510452 2.6590042 0
-6.8107214 9.6136761 2.6222184 0
-5.7047172 9.6870861 2.6856575 0
-4.7607851 9.7290039 2.7057991 0
15.296737 9.7399988 2.8646281 0
15.800535 9.5876312 2.5907073 0
84.126404 9.8616648 2.9561968 0
-7.3295922 10.226808 2.8937705 0
-4.8235321 10.09225 2.6854396 0
15.474007 10.191496 2.9270451 0
-4.9722776 10.789167 2.5148997 0
-4.2848997 10.817595 2.8528514 0
-4.7543354 11.172443 2.5706203 0
-4.1868706 11.063075 2.9809752 0
-4.6681361 11.862997 2.8153801 0
-4.4316893 11.917642 2.9243636 0
-4.6972694 12.184827 2.7064922 0
-4.353106 12.188237 2.8295796 0
-3.9837098 12.439079 2.766057 0
-4.5653377 12.625669 2.6003449 0
-4.2971382 12.645154 2.7627416 0
15.394138 16.392452 2.7552223 0
15.680637 16.43828 2.7834959 0
14.94516 16.940704 2.7678967 0
15.193284 16.69029 2.765398 0
15.995491 16.559904 2.8210316 0
16.267553 16.738546 2.8600297 0
16.858185 16.918451 2.9266517 0
14.867365 17.009054 2.7678964 0
15.074334 17.410442 2.8217626 0
16.788383 17.210135 2.663271 0
14.873821 17.698753 2.8327308 0
15.051989 17.589458 2.8366308 0
14.995316 18.301979 2.8992715 0
15.097036 18.4268 2.9190145 0
81.090393 20.685062 2.9207389 0
-4.8069682 21.837748 2.7396226 0
-5.3672743 22.438213 2.8268814 0
-4.984632 22.148022 2.7815459 0
-5.5834608 22.573599 2.8493052 0
-5.3269782 22.712488 2.8585675 0
-4.5964227 23.295017 2.9095087 0
-4.2196097 23.212469 2.8909845 0
-3.9523261 23.237772 2.8883035 0
-4.8485532 23.785021 2.974587 0
-5.5482664 24.142597 2.5985775 0
15.416093 24.87952 2.5564523 0
16.700089 24.99601 2.6258283 0
15.281818 25.269863 2.5794616 0
15.770593 25.228779 2.59881 0
16.246592 25.158167 2.6159272 0
16.594582 25.090023 2.6275711 0
15.267409 25.692196 2.6104889 0
15.291918 26.195501 2.6495345 0
13.70195 27.384697 2.6748099 0
-4.7417603 29.495493 2.6094429 0
24.181755 29.185246 2.6469793 0
-4.6577768 29.847652 2.6387272 0
-4.5436916 30.370979 2.6824794 0
-4.2616062 30.423771 2.6835253 0
-3.8394699 30.372238 2.6741707 0
-4.0494518 30.611694 2.6972957 0
-3.607404 30.816618 2.7103112 0
-3.3487208 30.682186 2.6960759 0
15.948344 32.990055 2.5589466 0
15.797367 33.336346 2.5762463 0
16.24015 33.191956 2.5805709 0
15.30162 33.904163 2.5977311 0
15.648161 33.829369 2.6030326 0
44.809383 33.702728 2.9359424 0
38.957237 34.835205 2.7363329 0
39.17865 34.814945 2.7442882 0
34.989777 35.374668 2.6050744 0
35.280365 35.333588 2.6142855 0
35.56987 35.29221 2.623497 0
36.135525 35.304028 2.6450591 0
39.965836 35.299816 2.7920187 0
13.804289 35.972427 2.6909258 0
35.056 35.777435 2.6225548 0
13.692628 36.019348 2.6912045 0
35.157051 36.323021 2.6467338 0
35.240776 36.752735 2.6659935 0
40.303135 36.830872 2.8587995 0
35.325459 37.185364 2.6854625 0
39.734947 37.332493 2.8548217 0
40.259007 37.362141 2.8759654 0
35.4226 37.758343 2.7107933 0
39.630028 37.55711 2.8589039 0
-4.0037107 42.16317 2.9582326 0
-3.8766747 42.235146 2.9624178 0
-54.677624 56.186985 2.7361207 0
-54.398037 56.252132 2.7309554 0
46.765934 59.549683 2.6424501 0
47.281979 59.8913 2.6629713 0
54.158661 60.466267 2.8330016 0
54.182076 60.85804 2.8437507 0
52.827637 66.483353 2.9636652 0
53.262978 66.386292 2.9705057 0
53.849022 66.283058 2.9805565 0
54.29768 66.195595 2.9880948 0
49.976364 66.973953 2.9164813 0
50.28017 66.941269 2.9219255 0
47.993507 67.312073 2.885211 0
48.250793 67.246002 2.8885615 0
48.689186 67.186035 2.8958206 0
49.25502 67.089981 2.9047546 0
0.73938847 72.725182 2.5380776 0
1.3136994 73.157684 2.5534565 0
1.8002779 74.482895 2.6000824 0
27.283792 74.153885 2.7575488 0
27.592398 74.028999 2.7571998 0
2.1578848 74.927406 2.6159267 0
25.110209 74.915787 2.757479 0
28.071808 74.570854 2.780792 0
2.4049337 75.283852 2.6286302 0
24.958834 75.210686 2.7655759 0
2.848541 75.88443 2.6501281 0
24.391699 75.879555 2.7816296 0
24.59576 75.704376 2.7779999 0
2.6652191 76.187096 2.6604586 0
123.10206 77.214287 2.5356255 0
123.18689 77.807793 2.542397 0
27.795118 80.407776 2.9692492 0
28.157879 80.268631 2.9688306 0
28.557335 80.195404 2.9710641 0
27.591177 80.630096 2.9742746 0
4.4139843 83.100288 2.904336 0
4.6903367 83.357422 2.9138286 0
8.9315538 -87.162346 3.0580335 0
8.6187677 -86.66758 3.039746 0
7.8658972 -85.946259 3.0121756 0
-0.744712 -65.787628 3.4454854 0
-1.1542253 -60.725883 3.1805606 0
-1.3393797 -60.470367 3.167372 0
11.486219 -42.119556 3.049474 0
11.599391 -42.014027 3.0444517 0
17.783976 -39.269714 3.0111079 0
18.2264 -39.265266 3.0237339 0
18.747343 -39.158916 3.0325463 0
19.070251 -39.001568 3.0324535 0
23.822111 -39.056831 3.1956835 0
24.268307 -39.105507 3.2149363 0
24.736322 -39.178059 3.2366076 0
25.169317 -39.185463 3.2533023 0
25.71339 -39.224575 3.2763219 0
26.211922 -39.196262 3.2939007 0
26.709345 -39.047752 3.3047826 0
27.323746 -39.278267 3.3424511 0
27.746889 -39.241314 3.3573322 0
28.263565 -39.187786 3.3752832 0
28.741722 -39.209419 3.3961635 0
29.234472 -39.2313 3.417881 0
29.839605 -39.280338 3.4460628 0
30.2756 -39.216309 3.4610372 0
