# .PCD v0.7 - Point Cloud Data file format
VERSION 0.7
FIELDS x y z intensity
SIZE 4 4 4 4
TYPE F F F F
COUNT 1 1 1 1
WIDTH 1488
HEIGHT 1
VIEWPOINT 0 0 0 1 0 0 0
POINTS 1488
DATA ascii
13.25349 -21.31073 0 0
13.809574 -21.318617 0.22182007 0
14.081814 -21.09362 0.22145358 0
14.801771 -21.097715 0.44901553 0
15.30596 -21.390991 0.45828271 0
15.711161 -21.318289 0.46141368 0
16.219688 -21.181049 0.23386225 0
16.872166 -21.271708 0.23653828 0
17.191219 -21.117134 0 0
17.59646 -21.148958 0 0
12.295052 -20.907806 0 0
12.607147 -20.639992 0.42132437 0
13.76371 -20.949087 0 0
14.178438 -20.75206 0.26362905 0
15.376035 -20.727596 0 0
15.892694 -20.859438 0.30500987 0
16.049231 -20.683859 0 0
16.613914 -20.69157 0.46234912 0
21.124615 -20.756649 0 0
12.711662 -20.437408 0 0
15.369556 -20.385372 0 0
15.93685 -20.406366 0 0
16.000879 -20.356197 0 0
21.862595 -20.064383 0 0
22.008682 -20.008289 0 0
20.855181 -19.929739 0 0
21.209311 -19.830591 0 0
22.089241 -19.955139 0 0
61.594929 -19.593254 0 0
21.489016 -19.054361 0 0
23.247309 -19.358423 0 0
61.659992 -19.40085 0 0
21.577183 -18.776592 0 0
23.476938 -18.818327 0 0
23.822161 -18.914696 0 0
21.672798 -18.390661 0 0
23.847818 -18.293371 0 0
22.298143 -17.760988 0.49676526 0
44.639156 -17.612692 0 0
44.653198 -17.456587 0 0
32.263428 -15.65763 0 0
18.451376 -15.185061 0.41627479 0
18.524158 -15.083021 0 0
-4.3838706 -14.238276 0.25920314 0
-2.2571645 -14.010871 0.49389771 0
-1.0545954 -14.339283 0.12476725 0
20.168854 -14.148712 0.2448024 0
-3.9357243 -13.741442 0.24866189 0
-3.1356447 -13.764026 0.082410261 0
-2.7657521 -13.685205 0.1548119 0
-2.3040059 -13.626766 0.36029753 0
-4.0584679 -13.407193 0.24367049 0
-3.8792484 -13.154228 0.12032852 0
-3.2637005 -13.19043 0.15319705 0
-2.8356841 -13.343332 0.3238076 0
-5.0293846 -12.728458 0.23805082 0
-4.1685262 -12.537639 0.22952008 0
-3.7543092 -12.836371 0 0
-3.3294487 -12.894916 0.29875475 0
-7.0447903 -12.259604 0.49208292 0
-6.8555789 -12.146091 0.41622189 0
-5.2266674 -12.434095 0.46932843 0
-4.7279887 -12.123231 0.11442962 0
-4.1962671 -12.131091 0.23962705 0
-3.9597921 -12.18186 0.33421454 0
-7.0330076 -11.873278 0.28797802 0
-6.8208876 -11.763005 0.14768168 0
-5.5166211 -11.978897 0 0
-5.0773292 -11.889003 0.1124982 0
-4.7594557 -11.832458 0.2555899 0
-4.2800527 -11.811155 0.2353085 0
-3.8596849 -11.962333 0.14560069 0
-3.4560866 -11.803074 0.42779803 0
-7.6773424 -11.192025 0 0
-6.733768 -11.3386 0.23059863 0
-6.2299414 -11.234511 0.12024978 0
-5.8524852 -11.167053 0 0
-5.247674 -11.215751 0.071042933 0
-4.6516581 -11.285921 0.18344109 0
-4.3504868 -11.252097 0.16304561 0
-3.5347469 -11.087678 0.20231034 0
-3.4609911 -11.110434 0.2023288 0
-7.7895932 -10.639386 0.22932461 0
-7.3308353 -10.580666 0 0
-6.6659775 -10.698862 0.13127729 0
-6.3918605 -10.514232 0.42800742 0
-5.6793089 -10.789839 0.21138538 0
-5.228559 -10.800094 0.23113692 0
-4.753993 -10.689554 0.24544337 0
-4.4040513 -10.82756 0.40650931 0
-7.7967591 -10.435863 0 0
-7.2083282 -10.086596 0.10810021 0
-6.6858382 -10.265958 0.21300912 0
-6.4857216 -10.082193 0 0
-5.2883377 -10.266238 0.21993884 0
-7.2671156 -9.9368372 0.053474173 0
-6.5957212 -9.9412622 0.1244998 0
-6.4136977 -9.7292595 0.40525293 0
127.33417 -7.7226057 0 0
127.35256 -7.3438425 0 0
-3.9004056 -5.6044106 0.11834477 0
-5.0685959 -5.2854733 0.12698372 0
-4.0184274 -5.0736494 0.22433396 0
-3.7625191 -5.4004164 0.32572287 0
-6.0304871 -4.5849924 0.26286301 0
-5.8272033 -4.603621 0.12821557 0
-5.0750828 -4.7629876 0.24199095 0
-4.8110943 -4.6289773 0.28113464 0
-4.2992549 -4.5703216 0.22236453 0
-3.8364208 -4.6913791 0.21480386 0
-3.2584393 -4.8989625 0.24076831 0
-5.7223649 -4.2292066 0 0
-5.2012224 -4.2438059 0.29503635 0
-4.8238859 -4.3036981 0.20934869 0
-4.2265286 -4.2153358 0.19917107 0
-3.7919769 -4.340723 0.34264016 0
-3.1377981 -4.0841312 0.073980749 0
-2.9200134 -4.0619788 0.2596561 0
-5.0984411 -3.7904239 0.1575118 0
-4.7689919 -3.7727749 0.20600982 0
-4.385571 -3.7837927 0.26771763 0
-3.1806755 -3.6960206 0.084385268 0
-2.9265335 -3.8717248 0.16278031 0
72.923935 -3.6264029 0 0
-6.108736 -3.2880089 0.38101232 0
-5.8550091 -3.118197 0.401999 0
-5.1577735 -3.2327108 0.14081852 0
-4.7573614 -3.358747 0.29014757 0
-4.2166986 -3.1413746 0.27551678 0
-3.9637654 -3.4635453 0.41069114 0
-5.0216408 -2.7982671 0.19906673 0
-4.6053615 -2.6724277 0.23661648 0
-4.1827431 -2.702662 0.32934192 0
-3.8713531 -2.5785983 0.094705336 0
-5.1392279 -2.1078565 0.38505572 0
-4.6772327 -2.2201545 0.41517118 0
-4.2665539 -2.2341511 0.25986511 0
-3.9170499 -2.3114009 0.2736451 0
-6.6062784 -1.7212684 0.35525644 0
-6.3268209 -1.6625293 0.30921787 0
-5.6245356 -1.6358026 0.3257882 0
-5.1198006 -1.6564995 0.24132304 0
-4.7669268 -1.7840737 0.28985509 0
-4.3987241 -1.7312495 0.21345533 0
-3.743829 -1.662827 0.071217082 0
-3.4400086 -1.8187896 0.027555762 0
-6.9414649 -1.03756 0.36530495 0
-6.1718659 -1.3931816 0.10960112 0
-5.670311 -1.1703919 0.36853313 0
-5.1817679 -1.1035024 0.3040652 0
-4.7803392 -1.1919351 0.19329906 0
-4.1512961 -1.3081661 0.12934949 0
-3.9306595 -1.3994545 0.046466552 0
-23.567669 -0.76589692 0 0
-22.318434 -0.58555019 0 0
-6.1602197 -0.59680933 0.28693503 0
-5.7783608 -0.7181946 0.22992828 0
-5.2021327 -0.88153589 0.24740055 0
-4.7047391 -0.68706971 0.12736364 0
-4.4823565 -0.51999336 0.39057398 0
-23.608057 -0.0937135 0.1381067 0
-23.247782 -0.321042 0 0
-22.290976 -0.47984949 0 0
-6.2005095 -0.34008175 0.09778478 0
-5.9235468 -0.4247376 0.17165637 0
-4.6010947 -0.4322218 0.25194928 0
-4.4932594 -0.4433918 0.39080638 0
55.433125 -0.2892276 0 0
55.555408 -0.28524959 0 0
-24.500061 0.46185869 0.42688584 0
-24.319464 0.30670214 0 0
-23.806097 0.12840025 0.13844413 0
-7.5305147 0.41854304 0.22601455 0
-7.4405189 0.44881159 0.16597974 0
0 0 0 0
55.408108 0.05401371 0 0
-24.588491 0.98318774 0 0
-24.08947 0.64102948 0 0
-23.896044 0.73420906 0.41647255 0
-7.7039332 0.72228277 0.20248808 0
-7.268466 0.7660355 0.2158359 0
48.490749 0.95433992 0 0
48.669483 0.80513775 0 0
-24.250319 1.1720787 0 0
-23.926216 1.120073 0.41725215 0
-8.818553 1.202377 0 0
-8.2291899 1.2568142 0.177679 0
-7.7667589 1.2922668 0.24838234 0
-7.0973754 1.4135489 0.16557337 0
-6.9795303 1.4252441 0.41207847 0
48.507507 1.1071273 0 0
-8.8422213 1.5616788 0.26055884 0
-8.0654335 1.8687358 0.15070166 0
-7.7801671 1.7634491 0.25868106 0
-7.285778 1.7425551 0.2115927 0
-6.8930326 1.9813598 0 0
-5.5803542 1.9496206 0.10180629 0
-5.113204 1.8692625 0.39426857 0
-4.9683852 1.8475296 0.45955476 0
64.833099 1.8726662 0 0
-8.8406954 2.2825661 0.31716663 0
-8.1392403 2.1427476 0.22495089 0
-7.8112798 2.2715192 0.2119887 0
-7.3064613 2.1922901 0.2246667 0
-6.7496381 2.4122581 0.20206119 0
-6.3890867 2.3503871 0.023623578 0
-5.6542301 2.2367041 0.18504599 0
-5.3292475 2.2894423 0.16929108 0
-4.9167633 2.3560565 0.32333156 0
-4.0063734 2.0871313 0.15607053 0
-3.8907313 2.1516771 0.23556539 0
42.657578 2.2350199 0 0
63.747181 2.2419693 0 0
-8.1559439 2.6106396 0.36092606 0
-7.8914332 2.6463096 0.33742654 0
-7.3569703 2.6015532 0.36244127 0
-6.7154884 2.5184085 0.37134585 0
-6.1395025 2.8201294 0.23431522 0
-5.6532693 2.7641168 0.1685008 0
-5.3071465 2.6034575 0.25110495 0
-4.8144026 2.850323 0.15567052 0
39.671768 2.8231068 0 0
63.789246 2.7397604 0 0
-34.671993 3.3979187 0 0
-5.8478341 3.2785003 0.34897614 0
-5.1701336 3.2822785 0.20669548 0
-4.815093 3.1789644 0.29631919 0
-4.3831072 3.2252629 0.43262541 0
36.955383 3.2049909 0 0
56.72998 3.406029 0 0
57.558517 3.2842517 0 0
-5.6284513 3.8135695 0.20870921 0
-5.1962585 3.7348595 0.16152143 0
-4.8280134 3.7481041 0.20809588 0
-4.4834003 3.5590053 0.3969143 0
55.896648 3.532124 0 0
-6.073698 4.4298143 0.28327379 0
-5.6945024 4.3085132 0.17657048 0
-5.2114983 4.3031344 0.20722458 0
-4.955184 4.2901707 0.19817282 0
51.850201 4.250649 0 0
52.369709 4.1278338 0 0
53.378902 4.0475507 0 0
-6.815556 4.8548565 0.36349255 0
-6.2521572 4.7270641 0.23748608 0
-5.6453052 4.610446 0.15255804 0
-5.2692294 4.7447777 0.27687222 0
-4.9713545 4.6714697 0.39083928 0
47.71962 4.9545984 0 0
48.419506 4.8733988 0 0
48.787876 4.6827106 0 0
49.426521 4.513114 0 0
-6.6385641 5.1253424 0.14555307 0
-5.6463208 5.3631234 0.27026168 0
-5.3093915 5.056644 0.12800376 0
44.14172 5.4110646 0 0
44.647045 5.3305731 0 0
45.780064 5.3200026 0 0
46.12558 5.2211566 0 0
46.52346 5.1181216 0 0
47.112034 5.0332465 0 0
41.394463 5.9797001 0 0
41.796246 5.9108596 0 0
42.218788 5.8352833 0 0
42.653118 5.7589397 0 0
43.11021 5.6903529 0 0
43.63176 5.6194148 0 0
44.141315 5.544241 0 0
39.241367 6.29246 0 0
39.857693 6.1419058 0 0
40.260468 6.0744433 0 0
41.035183 6.0593309 0 0
23.463724 6.9676929 0.42639717 0
23.597466 6.847878 0.42804936 0
39.178303 6.7167788 0 0
22.875219 7.3327088 0.41846216 0
23.241709 7.2306318 0.25467947 0
23.666428 7.305562 0.43149328 0
39.283192 7.2350779 0 0
-6.5804343 7.8070321 0.21356456 0
-6.293467 7.8676472 0.19847889 0
22.982883 7.6050406 0.42171994 0
23.101337 7.6910667 0.33938649 0
39.363548 7.7535353 0 0
-6.6982946 8.2230701 0.25718439 0
39.456013 8.2773285 0 0
-8.1184731 8.8437109 0.23254554 0
-7.6161995 8.9055052 0 0
-6.3141026 8.9732952 0 0
-5.7908702 8.6757965 0.28233364 0
-5.0199828 8.8131847 0.1761995 0
-4.7334919 8.895072 0.29208994 0
19.88945 8.8070526 0 0
39.529423 8.7395582 0 0
-8.7599945 9.4751987 0 0
-7.1697397 9.4503803 0.20621765 0
-6.7360406 9.3327303 0.097387046 0
-6.2879152 9.2061558 0.24917589 0
-5.7749829 9.223464 0.21860793 0
-5.2514806 9.2898321 0.15853961 0
-4.7383146 9.0518818 0.17917402 0
-4.4586287 9.1122484 0.20122053 0
39.605091 9.2057228 0 0
-8.7343731 9.5340919 0 0
-8.2043934 9.5107555 0.43694168 0
-7.2811089 9.6920414 0.21075524 0
-6.7854743 9.5168276 0 0
-6.1467056 9.5848751 0.19648416 0
-5.8551178 9.6918325 0.098582827 0
-5.3219476 9.5880852 0.095604286 0
-4.5309143 9.9709587 0 0
-4.1532722 9.6969347 0.12153856 0
-3.9559002 9.7307835 0.27373067 0
-9.5236359 10.085852 0.48272985 0
-8.6961432 10.020935 0.46165052 0
-7.6387434 10.346059 0.31295726 0
-6.4800501 10.181614 0.41977113 0
-5.5783076 10.088635 0 0
-4.5637093 10.341963 0 0
-4.231946 10.237186 0.15723136 0
-3.8345449 10.229316 0.096337281 0
-8.6992111 10.981977 0.24370539 0
-7.7190027 10.81534 0.18512109 0
-6.8820524 10.702696 0.44266522 0
-5.3886232 10.828871 0.31543767 0
-4.1561708 10.697732 0.23618984 0
-3.8830628 10.739999 0.24080551 0
-8.0017405 11.078518 0.23770177 0
-4.614532 11.202991 0 0
-3.9149289 11.013953 0.40650934 0
-6.9120498 11.814406 0.47630832 0
-7.1474242 12.130506 0.48998892 0
-6.1137552 12.15064 0.23658481 0
-5.5532141 12.072139 0 0
-5.840435 12.547445 0 0
13.973322 13.461414 0.1690091 0
14.033635 13.403572 0.22534548 0
-4.0913348 13.912846 0.25229201 0
13.927637 13.50505 0 0
33.39447 13.865806 0 0
33.559143 13.631737 0 0
-4.0683775 14.079903 0.25497967 0
33.176773 14.316929 0 0
33.792076 14.338045 0 0
19.775154 14.929917 0.21562448 0
24.211769 14.82058 0.2202571 0
24.687952 14.752507 0.24967411 0
25.23295 14.766326 0 0
19.679893 15.051877 0 0
23.795435 15.269011 0.14780094 0
24.141066 15.06626 0.24721333 0
13.760283 15.848607 0.2920416 0
19.593302 15.615862 0 0
23.350445 15.776547 0.24485028 0
23.538534 15.553935 0.32763985 0
32.927254 15.82935 0 0
33.079681 15.694479 0 0
13.675088 16.07955 0.12248099 0
15.698065 18.767616 0.4262436 0
-4.5972695 19.065708 0 0
-4.8732033 19.937206 0 0
23.93811 19.872747 0 0
82.682892 19.883757 0 0
23.773249 20.146957 0 0
82.689491 20.14554 0 0
23.279278 20.935015 0 0
23.892921 20.764494 0 0
22.998457 21.077713 0 0
23.158285 21.226892 0 0
23.700998 21.053251 0 0
23.049269 21.58782 0 0
19.346729 22.158821 0 0
19.506056 22.200066 0 0
-5.565105 24.407841 0.21794565 0
-5.4883966 24.425203 0.21794565 0
-5.716783 24.723814 0 0
-6.9285469 25.424961 0 0
-6.3676109 25.270237 0.45404181 0
-5.7913122 25.047432 0.44789854 0
-5.2702146 25.476755 0.45327389 0
-4.7939386 25.35474 0.44957399 0
-4.4701691 25.357224 0.44859666 0
15.368324 25.332085 0 0
15.546093 25.177238 0 0
-6.3194022 25.579081 0.45906812 0
-5.129499 25.593166 0.4547748 0
-6.367589 26.127304 0.46856216 0
-4.7197237 26.291811 0.46542075 0
-5.8418336 27.187365 0.48454857 0
18.780432 27.421457 0 0
19.070787 27.483644 0 0
-6.076436 27.656445 0 0
-5.8896976 27.815098 0.49543893 0
18.77018 27.638626 0 0
23.19219 28.919094 0 0
23.201262 29.211304 0 0
23.68458 29.06875 0 0
24.207918 29.149277 0 0
23.284626 29.759094 0 0
23.170938 30.067919 0 0
23.210566 32.891068 0 0
15.262321 33.307831 0 0
23.071375 33.023079 0 0
18.446373 36.804169 0 0
18.578148 36.778168 0 0
23.203287 36.960373 0 0
23.610128 36.879089 0 0
23.430902 37.105392 0 0
-6.0459986 39.188492 0 0
-5.96243 39.468311 0 0
-6.2305756 39.560505 0 0
-5.7561469 39.746696 0 0
-5.5462155 40.070126 0 0
-5.4514089 40.264782 0 0
14.371442 40.979103 0 0
14.725368 40.771179 0 0
15.196247 40.772144 0 0
21.749466 40.823662 0 0
21.377645 41.362335 0 0
21.879593 41.372723 0 0
23.307152 41.241924 0 0
21.783146 41.823387 0 0
22.65287 41.578907 0 0
23.840031 41.732681 0 0
31.78607 42.877712 0 0
32.096527 42.742767 0 0
12.735647 43.060196 0 0
31.526611 43.085564 0 0
-5.7676768 43.69714 0 0
81.339775 43.945866 0 0
81.554985 43.731686 0 0
31.902767 44.472691 0 0
32.130585 44.347816 0 0
-5.6939373 44.706947 0 0
31.81456 44.6292 0 0
-5.1955929 45.899014 0 0
-4.8968987 45.835297 0 0
-5.2772484 46.624199 0 0
58.08522 47.294159 0 0
58.063484 47.580017 0 0
49.613701 48.829483 0 0
22.326471 51.426605 0 0
33.886974 51.499187 0 0
34.041687 51.382656 0 0
17.758801 51.916542 0 0
21.990046 51.519371 0 0
33.963596 51.970318 0 0
48.618855 51.961258 0 0
17.832121 52.130604 0 0
34.044132 52.452503 0 0
48.392723 52.046375 0 0
21.964521 55.744987 0 0
21.881405 56.022503 0 0
18.393478 57.23732 0 0
18.781981 57.221695 0 0
-4.5205073 67.641258 0 0
-4.3247485 68.09494 0 0
-4.1506281 68.570633 0 0
-4.1100769 71.646339 0 0
-3.9089544 72.102249 0 0
-3.6013446 74.897606 0 0
-3.3562002 74.688766 0 0
-2.6972983 75.984283 0 0
-2.3497837 75.92569 0 0
-1.5567102 78.056618 0 0
-1.3267006 78.948997 0 0
48.219952 83.170654 0 0
48.67812 83.072716 0 0
-0.68286192 -49.891811 0.87010717 0
-0.37181783 -49.703125 0.86675626 0
0.62904018 -49.580605 0.86466205 0
1.7215327 -49.897354 0.87064236 0
-0.14154659 -49.448414 0.86228853 0
0.24661966 -49.411697 0.86166024 0
-5.9330616 -46.745956 0.82165927 0
-6.1057105 -46.388874 0.8158651 0
-3.6417842 -41.612679 0.72828889 0
-3.4571381 -41.76693 0.73069733 0
-2.6353192 -41.522209 0.72539186 0
-2.0537655 -41.523052 0.72483331 0
-1.922737 -41.517315 0.72462392 0
-1.4111325 -41.625889 0.72615969 0
-0.82757026 -41.545525 0.72448432 0
-4.5944829 -41.347321 0.72532195 0
-4.3869438 -41.243118 0.72312301 0
-2.8277068 -41.461506 0.72455418 0
-2.171067 -41.2808 0.72071463 0
-1.6580495 -41.319134 0.72097057 0
-1.2055054 -41.310211 0.72054005 0
-2.3387535 -40.866989 0.71366382 0
-0.99730539 -40.769737 0.71101105 0
-4.1108274 -40.461666 0.70905638 0
-3.8912172 -40.147816 0.70322722 0
13.372636 -38.803463 0.71557188 0
13.584812 -38.643635 0.71415246 0
12.721044 -38.260395 0.70294797 0
16.402416 -38.162167 0.72420502 0
16.68689 -38.333199 0.72891724 0
14.921268 -37.575787 0.70486778 0
15.206314 -37.961567 0.71296573 0
13.779474 -37.033665 0.6888814 0
14.279405 -37.316505 0.69658375 0
14.631096 -37.363434 0.69956225 0
13.397271 -36.880127 0.68406451 0
13.668256 -36.733459 0.68329662 0
14.921979 -36.916309 0.69418687 0
15.072592 -36.954437 0.69579256 0
16.141748 -36.307602 0.69272089 0
16.177801 -35.787277 0.6846928 0
16.109781 -35.058044 0.67261577 0
16.138088 -34.688 0.66696119 0
11.42522 -25.607897 0.97753489 0
11.675259 -25.530041 0.97865164 0
11.838461 -25.463589 0.97893083 0
11.648585 -24.747015 0.9534542 0
37.777763 -24.695093 0.78696388 0
37.877056 -24.254087 0.78424132 0
51.839512 -24.08042 0.99688148 0
37.964771 -23.900072 0.78221685 0
38.013725 -23.682404 0.78092539 0
49.243797 -23.629929 0.95255232 0
49.851803 -23.730433 0.96288413 0
50.53001 -23.85899 0.97454232 0
18.875328 -23.214252 0.52140808 0
19.13114 -23.15966 0.52350235 0
20.225777 -23.135538 0.53555614 0
21.944227 -23.025101 0.55435818 0
34.240665 -23.378166 0.72285539 0
38.0872 -23.237047 0.77794105 0
45.846684 -23.06204 0.89495939 0
46.380188 -23.14002 0.90389502 0
46.915272 -23.231602 0.9129703 0
47.472183 -23.323051 0.92239451 0
10.898483 -22.790192 0.88049108 0
11.124603 -22.623442 0.87869954 0
11.561406 -22.53616 0.88281763 0
15.780089 -22.58954 0.96057373 0
20.398172 -22.82736 0.53352004 0
20.872437 -22.640144 0.53666151 0
21.592432 -22.857161 0.54800558 0
22.130445 -22.650888 0.55191487 0
22.560791 -22.875687 0.55997789 0
38.1731 -22.724794 0.7746076 0
42.747295 -22.503504 0.8423928 0
43.289185 -22.615507 0.85167742 0
43.619152 -22.62258 0.85684335 0
44.22654 -22.762634 0.86738461 0
44.757248 -22.858337 0.87639004 0
45.296127 -22.954548 0.88553512 0
11.34208 -22.315695 0.87248743 0
15.591639 -22.165104 0.94465953 0
20.882288 -22.43754 0.53418326 0
21.278654 -22.120262 0.53491628 0
38.218292 -22.269806 0.77125674 0
40.267647 -22.057404 0.80057681 0
40.919579 -22.198538 0.81174636 0
41.39257 -22.290718 0.81977445 0
41.811539 -22.347294 0.82668561 0
42.284264 -22.429571 0.8346439 0
11.418356 -21.83363 0.85873699 0
11.662131 -21.818792 0.86226189 0
12.185423 -21.65484 0.86603099 0
13.48685 -21.628113 0.88840157 0
15.660116 -21.616276 0.93045551 0
18.420183 -21.757874 0.99384457 0
18.519838 -21.597801 0.99184364 0
21.327066 -21.959486 0.53348511 0
38.287434 -21.834892 0.76851088 0
38.663101 -21.734482 0.77335101 0
39.223557 -21.887821 0.78319418 0
39.592957 -21.931219 0.7891978 0
12.944714 -21.192308 0.86550754 0
13.267507 -21.227398 0.87248737 0
13.658367 -21.090137 0.87576795 0
14.143808 -21.122553 0.88602841 0
15.653675 -21.258564 0.92022991 0
16.110943 -21.182529 0.92767507 0
16.659992 -21.143682 0.93834275 0
17.270321 -21.030607 0.94863808 0
21.042929 -21.009571 0.51819682 0
21.617493 -21.381701 0.52988994 0
11.852806 -20.539017 0.82642001 0
12.353493 -20.731672 0.84107786 0
12.704064 -20.945677 0.85378128 0
13.374316 -20.768473 0.86094731 0
13.797334 -20.949577 0.87430221 0
14.233113 -20.778881 0.87784797 0
15.567701 -20.934246 0.90934128 0
16.157188 -20.903671 0.92092788 0
16.862274 -20.883005 0.93563223 0
17.176277 -20.847202 0.9415884 0
11.800341 -20.446854 0.82272077 0
12.144512 -20.497896 0.83032876 0
20.85503 -20.245335 0.5065037 0
21.036375 -20.106325 0.50709713 0
21.86525 -20.004536 0.5164516 0
22.17391 -20.03961 0.52084959 0
20.97298 -19.798309 0.50259441 0
21.240011 -19.84198 0.50651532 0
21.821228 -19.798601 0.51347303 0
22.138601 -19.881622 0.51854593 0
22.830254 -19.682766 0.52531743 0
21.849998 -19.255201 0.50751597 0
22.013493 -19.159712 0.5085631 0
21.796186 -18.62619 0.99952155 0
52.719139 -18.778156 0.97600836 0
21.946112 -18.405787 0.99854439 0
22.225128 -18.174377 0.75009817 0
23.791641 -18.023237 0.52015156 0
52.314575 -18.356468 0.9668982 0
52.694088 -18.123245 0.97181976 0
22.378334 -17.895111 0.99892831 0
23.83247 -17.707104 0.51741493 0
44.470749 -17.735426 0.83485329 0
44.667038 -17.57095 0.83698249 0
52.808907 -17.798424 0.97188962 0
53.040325 -17.598423 0.97461224 0
23.923458 -17.3722 0.51522994 0
24.024456 -17.218536 0.51509035 0
-2.7398777 -15.023435 0.79780924 0
18.451683 -15.129811 0.83158523 0
-2.5967128 -14.882639 0.78922629 0
-3.2586484 -14.244166 0.76326758 0
-2.5390351 -14.29251 0.75824326 0
-2.3091655 -14.149328 0.74882287 0
20.25292 -14.234877 0.86278534 0
-4.019629 -13.624114 0.74191451 0
-3.8846364 -13.627821 0.83850574 0
-3.2040365 -13.697592 0.8583436 0
-1.6918325 -13.815307 0.88850504 0
-1.2713609 -13.923328 0.97431189 0
-4.7003255 -13.262172 0.8152104 0
-4.0876694 -13.334585 0.72841179 0
-3.9341481 -13.293755 0.72405052 0
-3.2213209 -13.287103 0.89965916 0
-2.717838 -13.33346 0.84014761 0
-2.1922159 -13.449478 0.94952518 0
-7.132216 -12.540204 0.70296037 0
-4.5186996 -12.722649 0.94073582 0
-4.4387441 -12.631414 0.81714571 0
-3.2939718 -12.837006 0.80798405 0
-7.0893707 -12.097272 0.89496994 0
-6.8361974 -12.214485 0.90536404 0
-5.1618924 -12.231367 0.69324207 0
-4.2118654 -12.176018 0.79185253 0
-3.9427702 -12.107357 0.88702327 0
-7.1190929 -11.874693 0.7230736 0
-6.7302456 -11.801739 0.70957088 0
-6.3235183 -11.703194 0.75303149 0
-4.6987343 -11.642331 0.72833174 0
-4.3194008 -11.551762 0.78769618 0
-3.8228953 -11.753147 0.64519769 0
-7.1516218 -11.400204 0.70276725 0
-6.0256848 -11.108332 0.88032669 0
-5.8117366 -11.11761 0.7285285 0
-5.2735758 -11.21298 0.6468724 0
-4.6174541 -11.0737 0.76630205 0
-4.3078032 -11.176761 0.72920632 0
-3.5518062 -11.126747 0.73179024 0
-3.4669275 -11.127392 0.71007192 0
-8.9275885 -10.786846 0.97575349 0
-8.4796419 -10.57535 0.94450265 0
-6.6042995 -10.6844 0.72873861 0
-6.4485989 -10.737004 0.79968411 0
-5.5889869 -10.638888 0.71711439 0
-5.2071319 -10.685178 0.7418527 0
-4.8968301 -10.661443 0.74859452 0
-4.3024311 -10.733841 0.78648967 0
-8.4043837 -10.285417 0.92543584 0
-7.6577816 -10.272936 0.8926968 0
-6.3539357 -10.333418 0.84489036 0
-5.1853757 -10.229443 0.76211625 0
-4.5938745 -10.407821 0.69225246 0
-4.4629626 -10.369751 0.8141889 0
-6.7536621 -9.9031982 0.67781627 0
-6.270237 -9.8555737 0.72546631 0
-3.9678493 -5.5683422 0.95417076 0
-3.4601154 -5.6514459 0.69142085 0
-4.0722637 -5.2275953 0.80774999 0
-3.7668276 -5.2115788 0.72045726 0
-3.3404036 -5.1606722 0.66713923 0
-5.0879717 -4.6773515 0.86328447 0
-4.7836542 -4.6538506 0.75735068 0
-4.3252416 -4.6957254 0.70971137 0
-3.7601101 -4.6601949 0.72544461 0
-3.2641094 -4.8201489 0.76616925 0
-5.300427 -4.3211169 0.77798247 0
-4.8347244 -4.3411298 0.74054855 0
-4.1800299 -4.3211164 0.70094281 0
-3.7554457 -4.2394896 0.71313828 0
-5.2372909 -3.9290645 0.6061998 0
-4.7164941 -3.6278255 0.71110308 0
-4.2808557 -3.6469009 0.79200065 0
-3.8083591 -3.8942051 0.85499954 0
-3.3698554 -3.8691854 0.7957074 0
-6.8594594 -3.149179 0.92084473 0
-6.1124506 -3.3320808 0.8970992 0
-5.934937 -3.1090932 0.8766799 0
-4.6949215 -3.2987671 0.82246923 0
-4.3265891 -3.3552856 0.85131443 0
-3.659256 -3.1237082 0.93529755 0
-3.4543424 -3.0702493 0.80642217 0
-6.6137099 -2.8622782 0.87908417 0
-6.2205749 -2.7688739 0.70876187 0
-5.8515158 -2.9855328 0.80068159 0
-4.6974163 -2.6572776 0.84822768 0
-4.1628528 -2.7042294 0.68703526 0
-3.9415908 -2.7712519 0.68133241 0
-6.6285033 -2.2090619 0.85288113 0
-6.1957045 -2.1063876 0.83088964 0
-5.823751 -2.2976911 0.73984259 0
-5.1791844 -2.3459368 0.79388165 0
-4.776279 -2.2119913 0.7742576 0
-4.2375159 -2.2214866 0.63387543 0
-3.8981938 -2.2763937 0.55734909 0
-6.2779508 -1.7845408 0.68018711 0
-5.7430758 -1.8038964 0.69093937 0
-5.1720734 -1.7169245 0.62585062 0
-4.7644758 -1.759483 0.74249083 0
-4.3080044 -1.6676741 0.82967621 0
-6.1723809 -1.4486723 0.55047566 0
-5.734426 -1.1547831 0.75414616 0
-5.1196661 -1.1977023 0.72923476 0
-4.8451915 -1.2531244 0.81368589 0
-4.4285507 -1.4801824 0.93171662 0
-23.93939 -0.54293376 0.83451676 0
-6.0060792 -0.57498574 0.94799286 0
-5.7932096 -0.73941505 0.75829637 0
-5.1932082 -0.78389579 0.74714875 0
-4.8216953 -0.70178002 0.74007589 0
55.344097 -0.63308489 0.96525776 0
-42.656406 -0.31867462 0.74375176 0
-23.092529 -0.23882633 0.80478233 0
-5.9191761 -0.49329534 0.61922657 0
-5.0151372 -0.45016956 0.78988975 0
-4.679534 -0.4667117 0.57151848 0
55.41497 -0.28570276 0.96644449 0
55.505779 -0.46057665 0.96805006 0
56.031498 -0.11297141 0.97719514 0
-23.749531 0.087610699 0.82767648 0
-23.169889 0.23034616 0.80750453 0
-22.963535 0.2625103 0.80028033 0
-7.5788589 0.36349499 0.79243022 0
-7.4253273 0.48287779 0.58172613 0
-23.613873 0.81596172 0.82343262 0
-23.336124 0.52114576 0.81343746 0
-22.846903 0.57905376 0.79640651 0
-7.6164351 0.88175094 0.65812629 0
-7.3257093 0.73112065 0.71042907 0
48.563206 0.80804235 0.84695369 0
-8.0321188 1.2739459 0.82438982 0
-7.6638293 1.3095284 0.73339701 0
-7.2971377 1.171057 0.71992326 0
-6.9522123 1.4235061 0.69105726 0
-8.7357416 1.6943203 0.6188795 0
-8.0797071 1.8723179 0.57674658 0
-7.8035612 1.8032645 0.80266404 0
-7.2983789 1.6928676 0.72987556 0
-5.9119973 1.9656891 0.84687269 0
-5.2302971 1.9281194 0.65214247 0
-4.9483542 1.954877 0.68673718 0
-8.2460861 2.1207085 0.74317324 0
-7.7021427 2.2125924 0.76006299 0
-7.2943878 2.1522241 0.66865456 0
-6.7771363 2.4857872 0.50140953 0
-6.1554375 2.4587128 0.57569271 0
-5.9277472 2.1581666 0.88868225 0
-5.2275715 2.1755087 0.82568228 0
-4.8416672 2.1138523 0.774414 0
-4.1002321 2.1543519 0.69510496 0
-3.8963602 2.1623378 0.7417956 0
42.497063 2.270365 0.74200654 0
42.559978 2.1843112 0.74303037 0
-8.6768723 2.6960092 0.63199371 0
-8.185771 2.6183803 0.79396981 0
-7.8403497 2.6474345 0.69225639 0
-7.3424492 2.6085153 0.54151946 0
-6.8291979 2.663763 0.50922227 0
-6.1804466 2.8714895 0.8330968 0
-5.7695937 2.6828341 0.62608284 0
-5.2716708 2.5524316 0.72027749 0
-4.8908567 2.5168662 0.57306683 0
-4.356339 2.6686435 0.92663038 0
39.673874 2.6762493 0.69324446 0
-5.5890431 3.3390911 0.58812094 0
-5.2816682 3.2328029 0.7696268 0
-4.8145247 3.2663214 0.71618259 0
-4.4350657 3.327625 0.63353479 0
-35.214741 3.9425054 0.61767554 0
-6.3173094 3.8461549 0.73589307 0
-5.7136369 3.6743655 0.7813406 0
-5.3676276 3.7371495 0.68431693 0
-4.8003983 3.5165107 0.77460778 0
-4.4601779 3.5549018 0.80411536 0
52.627258 3.9609768 0.9203701 0
53.493652 3.8494136 0.93530935 0
-35.220291 4.1615348 0.61821079 0
-6.2765446 4.3241415 0.90326118 0
-5.7810359 4.2193475 0.60688329 0
-5.3009682 4.2949729 0.62966007 0
48.935444 4.4422812 0.85684335 0
51.98914 4.0699568 0.90941 0
-7.0703073 4.7993321 0.89309114 0
-6.6153579 4.7074075 0.96206027 0
-6.2109566 4.6812611 0.92184353 0
-5.7111049 4.7975454 0.74501115 0
-5.2144895 4.8284664 0.68770421 0
-4.9470935 4.7658644 0.65782231 0
46.676456 4.9765158 0.81851786 0
47.158005 4.8712029 0.82668561 0
47.769257 4.7902126 0.83715701 0
48.605438 4.6425037 0.85143304 0
-6.2200308 5.2990193 0.96081346 0
-5.7066846 5.149528 0.82886857 0
-5.3468232 5.0624418 0.76855844 0
43.822216 5.4952588 0.77007002 0
44.202408 5.3359957 0.77631795 0
44.741226 5.1903782 0.78535831 0
45.786652 5.1656771 0.80343896 0
46.156403 5.0612741 0.80965203 0
-5.568902 5.6806226 0.84692341 0
40.376225 5.9613075 0.71156949 0
41.268936 5.89433 0.72682291 0
41.847992 5.7831964 0.73656136 0
42.258354 5.7045693 0.74347258 0
42.720173 5.6301942 0.75129122 0
43.189865 5.5539956 0.75924945 0
39.174297 6.2768817 0.69167376 0
39.765495 6.0558529 0.70127261 0
22.933825 6.9215355 0.83486575 0
23.19294 6.8430719 0.84275305 0
23.523344 6.824296 0.85364163 0
39.220371 6.7196321 0.69373316 0
22.792536 7.1863537 0.83288813 0
39.301876 7.2325382 0.6967001 0
-6.2507 7.8762441 0.69934326 0
22.946388 7.7421284 0.8440094 0
23.168388 7.7582135 0.85154772 0
39.382244 7.7512212 0.69977176 0
-6.6019926 8.2021084 0.78795922 0
-5.7131367 8.4039545 0.83996665 0
-4.1576867 8.3954067 0.97964072 0
23.303951 8.2253361 0.86131954 0
39.461838 8.1465912 0.70249426 0
39.516285 8.4130878 0.70437908 0
-7.7287788 8.99049 0.61882031 0
-6.2064319 8.9491568 0.94860309 0
-5.7517571 8.8109512 0.88646322 0
-5.0082579 8.8653984 0.53110528 0
-4.8384748 8.9140692 0.67598844 0
-4.2911382 8.9733038 0.51875401 0
39.568333 8.7450161 0.70649666 0
-7.7774811 9.3676367 0.6355679 0
-6.1044874 9.1576157 0.86266792 0
-5.695405 9.3493757 0.87714446 0
-5.3073783 9.2836075 0.79200792 0
-4.6952209 9.1585693 0.74104822 0
-4.2484627 9.266017 0.66517889 0
-3.8878043 9.3624783 0.88271338 0
39.631241 9.1442003 0.70910293 0
-9.6226797 9.723773 0.85763186 0
-9.1978168 9.7541494 0.93417871 0
-8.8828239 9.8352709 0.92336643 0
-8.2257481 9.7616282 0.84585744 0
-7.3098483 9.7807379 0.75919706 0
-6.118197 9.7245302 0.73195219 0
-5.8308172 9.7774315 0.67605829 0
-5.1681356 9.8211279 0.77252269 0
-4.6404786 9.6952839 0.89798278 0
-4.2749805 9.6123571 0.91626835 0
-8.5914936 10.031835 0.92022741 0
-7.5212564 10.397799 0.89399898 0
-7.4509497 10.324938 0.70948648 0
-6.5974321 10.377199 0.74821842 0
-6.123023 10.360809 0.83819377 0
-5.7225165 10.170091 0.81270951 0
-5.3809118 10.04159 0.79327065 0
-4.7631235 10.015183 0.77215767 0
-4.1831717 10.289105 0.69061023 0
-3.7977986 10.261976 0.80152875 0
-7.531816 10.513133 0.90097463 0
-7.4420729 10.562191 0.90013754 0
-5.7151914 10.775644 0.63671923 0
-5.2752538 10.608018 0.8250795 0
-4.6041236 10.611159 0.60367781 0
-4.2404943 10.861347 0.81196529 0
-3.7964761 10.598494 0.82748508 0
17.157808 10.982619 0.7097162 0
-4.0572243 11.096973 0.82284743 0
16.697159 11.164653 0.69975233 0
17.071564 11.039051 0.7082504 0
16.888861 11.710414 0.71599811 0
-4.1606512 13.265196 0.90906024 0
13.935712 13.462481 0.67495626 0
14.000916 13.40047 0.67509586 0
34.400093 13.412921 0.64364475 0
34.776192 13.377441 0.64954364 0
-4.5249391 13.549793 0.9955644 0
-4.1103292 13.635414 0.99249506 0
33.402431 13.863553 0.63042742 0
33.611149 13.648466 0.63237047 0
34.707874 13.657925 0.65020686 0
-4.348299 14.000375 0.76577967 0
33.206238 14.184789 0.62945014 0
33.692474 14.475751 0.63924676 0
24.308981 14.928187 0.99449605 0
24.232264 15.03338 0.99414706 0
32.867409 15.215858 0.63135821 0
13.723007 15.856575 0.73062098 0
19.651642 15.551843 0.87346458 0
33.361027 15.739624 0.64303964 0
13.641932 16.064426 0.73428535 0
33.403122 16.220161 0.6473214 0
33.766136 16.012455 0.65146339 0
-4.5545301 19.051353 0.68235499 0
24.494055 19.208244 0.5424906 0
24.557436 19.133656 0.54256046 0
24.131773 20.471493 0.55153096 0
22.983212 20.945084 0.54193211 0
23.245964 20.860184 0.54434055 0
23.659119 20.708973 0.5479939 0
24.008142 20.558027 0.55086774 0
22.972109 21.193899 0.54472452 0
23.094023 21.17695 0.54609746 0
23.08733 21.569431 0.55065835 0
15.364436 24.901033 0.50988948 0
15.684502 24.81307 0.51155102 0
16.001997 24.796648 0.51428753 0
22.512875 24.838774 0.58430654 0
-6.1479864 25.036621 0.89859223 0
-5.9208164 25.4711 0.9115051 0
22.525768 25.010387 0.58668011 0
-5.7279267 25.548569 0.9126451 0
-4.7209625 25.910791 0.9180429 0
-5.5931997 26.483482 0.94354278 0
-5.1129899 26.437843 0.93865681 0
-4.7619534 26.319824 0.93237495 0
-4.3518767 26.256208 0.92772168 0
-5.5594044 26.951963 0.95931739 0
-5.3456988 26.748573 0.95087171 0
-4.6801414 26.619402 0.94214684 0
-4.2344923 26.749023 0.9440546 0
18.824203 27.453211 0.5801878 0
18.890278 27.565338 0.58245659 0
22.821823 28.78754 0.64039856 0
23.33078 28.780317 0.64585537 0
23.428022 32.884533 0.70393699 0
23.709101 32.631382 0.7032156 0
15.343328 33.100605 0.63598895 0
15.559026 33.020535 0.63631481 0
22.387939 33.314289 0.6997717 0
22.508415 33.25716 0.70012075 0
23.176683 33.180927 0.70563573 0
23.385695 35.981762 0.74821961 0
23.873104 36.367935 0.75851655 0
22.597401 37.265339 0.7598778 0
22.673668 37.777424 0.76822001 0
-5.7335 40.341564 0.71040601 0
-4.8899364 40.354717 0.70870733 0
-5.8494763 40.594627 0.71506 0
-5.1018758 40.558292 0.71268642 0
14.727867 40.605507 0.75312018 0
15.365748 40.774166 0.75973815 0
22.75206 40.58215 0.81125766 0
23.213387 40.658989 0.81638861 0
23.990582 40.983517 0.82808173 0
24.159986 40.830383 0.82727897 0
14.41098 41.123516 0.75977302 0
22.463238 41.490307 0.8227064 0
22.666321 41.174324 0.819565 0
23.823185 41.134148 0.8288846 0
22.382397 41.6339 0.82424223 0
22.654922 41.568241 0.82549882 0
12.881503 43.043068 0.78340364 0
18.200996 44.481083 0.83806455 0
18.062666 44.541748 0.83813435 0
-5.0025334 45.406448 0.7965278 0
-5.2300406 45.567947 0.79977393 0
-4.7414837 45.671463 0.8006466 0
-4.3386407 45.924633 0.8043465 0
-4.6560106 46.261124 0.81073409 0
22.322094 46.248947 0.89555281 0
22.801151 46.318184 0.90029979 0
23.103512 46.371578 0.90347618 0
22.446697 46.506607 0.90054423 0
23.370989 46.559769 0.90850246 0
22.700035 50.37973 0.96368694 0
22.367264 50.906456 0.96972549 0
22.5576 50.699924 0.96777076 0
21.444183 51.343323 0.97038871 0
21.68808 51.080029 0.96780574 0
22.102875 51.161247 0.97195947 0
12.893099 51.636681 0.92815387 0
15.645135 -83.793015 1.4870497 0
15.930024 -81.794647 1.4537156 0
16.200891 -81.814827 1.4549723 0
10.738591 -75.623779 1.3324214 0
10.306153 -75.036148 1.3212171 0
7.8653407 -70.880135 1.2439727 0
6.3266835 -69.771225 1.2220175 0
6.7367215 -69.551765 1.218876 0
7.2573652 -69.310532 1.215595 0
2.8510942 -60.828087 1.0620836 0
3.0465596 -60.906708 1.0636195 0
2.4554806 -60.252953 1.0517519 0
2.6402709 -60.361229 1.0537763 0
1.5926789 -59.861763 1.0444218 0
0.93827665 -59.475685 1.0374409 0
1.1250622 -59.468441 1.037371 0
63.931614 -42.505974 1.3392279 0
63.954712 -42.23217 1.3369241 0
-2.7549484 -40.505844 1.416082 0
-2.3755877 -40.55389 1.4169196 0
-0.80116916 -40.733414 1.4210377 0
-2.7322845 -40.208691 1.4056821 0
-2.3498321 -40.116714 1.4016336 0
-1.7285942 -40.199696 1.4034251 0
-1.2357588 -40.395168 1.409614 0
-0.79566163 -40.409271 1.4097303 0
-2.089473 -39.973194 1.3961194 0
-1.967012 -39.923374 1.394165 0
12.626892 -38.222507 1.4040302 0
12.845175 -37.887466 1.3953516 0
13.211388 -37.625618 1.3908845 0
12.902541 -37.494076 1.3829973 0
13.25015 -37.359711 1.3825784 0
13.352821 -36.738991 1.3633838 0
13.616895 -36.933975 1.3729463 0
13.723866 -36.346603 1.3550427 0
13.904688 -35.157288 1.3185728 0
14.649295 -35.327862 1.3338588 0
-2.8317976 -29.974312 1.0497071 0
71.714905 -27.699306 1.3410778 0
11.922018 -25.233212 1.4600685 0
12.435106 -25.035685 1.462476 0
57.099678 -25.143776 1.0881925 0
12.413126 -24.698334 1.4461472 0
54.712662 -24.59605 1.0462369 0
52.528728 -24.200386 1.0086793 0
53.200817 -24.318014 1.0201979 0
53.833824 -24.404379 1.0308788 0
12.008753 -23.622688 1.3862748 0
11.958261 -23.343504 1.3720396 0
20.281881 -23.1425 1.0729152 0
20.793131 -23.141766 1.0847461 0
21.121479 -23.138582 1.0923543 0
33.793095 -23.374907 1.433206 0
34.244209 -23.295748 1.4446298 0
34.575104 -23.281212 1.453913 0
20.860397 -22.643005 1.0734386 0
12.420531 -22.001762 1.3215876 0
12.649794 -22.082767 1.3312174 0
20.879246 -22.380228 1.0671568 0
21.053755 -22.361916 1.0708562 0
11.249743 -21.539906 1.2710309 0
11.755512 -21.68152 1.2900463 0
12.301529 -21.712683 1.3053633 0
12.682196 -21.985815 1.3276585 0
13.395134 -21.807713 1.3387537 0
16.239122 -21.722433 1.4188627 0
16.804792 -21.898275 1.4441061 0
20.751375 -21.720947 1.0473572 0
23.665564 -21.668589 1.1188313 0
12.57769 -21.415722 1.2990831 0
13.213239 -21.104717 1.3024325 0
13.710785 -21.078299 1.3153071 0
14.195089 -21.074295 1.329124 0
15.77387 -21.422922 1.3917177 0
20.825401 -21.33205 1.0393908 0
21.203873 -21.159082 1.0443791 0
22.984947 -21.30621 1.0927731 0
23.434521 -21.188093 1.1015676 0
69.497902 -21.164362 1.2672541 0
12.362502 -20.678785 1.2601103 0
12.679372 -20.84304 1.2760553 0
13.339605 -20.909065 1.2973037 0
13.677717 -20.928802 1.3077708 0
14.334756 -20.79068 1.3209596 0
14.564686 -20.77684 1.3272398 0
16.325573 -20.548313 1.3728768 0
16.78743 -20.659954 1.3926075 0
17.155016 -20.586374 1.401871 0
21.2505 -20.692814 1.0341139 0
21.555824 -20.553144 1.0383997 0
69.824074 -20.811234 1.2709308 0
14.483151 -20.060343 1.2941636 0
14.62204 -20.050831 1.2980363 0
15.886052 -20.248857 1.3462901 0
16.392057 -20.495316 1.3728768 0
21.682678 -20.480503 1.0398654 0
22.716141 -20.414782 1.0648534 0
69.867851 -20.256229 1.2689295 0
14.075404 -19.74971 1.268484 0
22.165598 -19.795179 1.0360963 0
61.15543 -19.772179 1.121038 0
70.139511 -19.977331 1.2721407 0
61.291676 -19.498207 1.1218407 0
61.665436 -19.404043 1.127565 0
21.683193 -18.824478 1.0010571 0
22.091213 -18.701927 1.0090841 0
22.101337 -18.300695 1.0003592 0
22.527601 -18.304195 1.0119458 0
23.653793 -18.043354 1.037213 0
22.629454 -17.706129 1.0017086 0
23.457123 -17.663963 1.0237418 0
23.66453 -17.628084 1.0287906 0
24.204567 -17.700012 1.0454493 0
32.243584 -15.66228 1.2501 0
-2.1900434 -15.144323 1.3345288 0
-2.2000899 -14.740109 1.2996664 0
-3.9458742 -14.270609 1.0319773 0
-2.9334893 -14.205187 1.2648041 0
-2.1465914 -14.096649 1.493642 0
20.204411 -14.302181 1.2947916 0
-3.1782174 -13.762926 1.2936201 0
-2.8172846 -13.708046 1.3435303 0
-2.3089526 -13.723272 1.3757983 0
-1.7625861 -13.620098 1.4384161 0
-1.1570371 -13.677025 1.1966484 0
-3.6919708 -13.140923 1.2713426 0
-3.1158397 -13.238795 1.2535316 0
-2.7147217 -13.284099 1.3247517 0
-2.3383539 -13.39325 1.3639321 0
-7.1090097 -12.63175 1.0102133 0
-4.6176043 -12.573534 1.4027719 0
-4.3592057 -12.597576 1.3492994 0
-3.7133958 -12.94636 1.174162 0
-3.3839774 -12.829787 1.1566439 0
-7.1524439 -12.205126 1.4817954 0
-6.8281593 -12.155917 1.2460947 0
-4.2650895 -12.24912 1.2006332 0
-3.9370341 -12.137548 1.3360829 0
-7.0732517 -11.942453 1.4537818 0
-6.7485332 -11.783555 1.422284 0
-6.3863211 -11.901863 1.2958901 0
-4.7765083 -11.855991 1.3383825 0
-4.3200135 -11.687619 1.1587043 0
-3.8513844 -11.779215 1.2972567 0
-6.9027205 -11.342281 1.1574283 0
-5.9124427 -11.139071 1.3204036 0
-4.6305666 -11.391491 1.2873726 0
-4.2698483 -11.194134 1.1148227 0
-3.533757 -11.168464 1.1669043 0
-3.4389007 -11.210819 1.3101127 0
-8.0482311 -10.690313 1.1664925 0
-7.858192 -10.730199 1.2761054 0
-6.5819511 -10.957073 1.3383825 0
-6.4089942 -10.720928 1.0885751 0
-5.6636839 -10.779318 1.2251136 0
-5.2216949 -10.668323 1.2436367 0
-4.745069 -10.690949 1.1794852 0
-4.3329301 -10.795488 1.2386512 0
-7.7265334 -10.277678 1.2710892 0
-6.6601534 -10.085127 1.2652125 0
-6.4111142 -10.170122 1.4702318 0
-5.1662221 -10.373284 1.2424334 0
-4.7902112 -10.379523 1.2196587 0
-4.3593669 -10.241341 1.2490968 0
-7.5710058 -9.9921064 1.0925844 0
-6.2466202 -9.8038034 1.0821503 0
-4.9141936 -9.9630928 1.2275165 0
-6.5057826 -6.641808 1.2998768 0
-6.108675 -6.2766366 1.2241666 0
-3.6093049 -5.538373 1.0980644 0
-3.2171972 -5.6511269 1.1232486 0
-4.0868716 -5.0286851 1.0380315 0
-3.8606477 -5.0927157 1.1534561 0
-3.1979971 -5.1711688 1.3654482 0
-4.6983771 -4.6606474 1.1881567 0
-4.2081842 -4.7950263 1.3065856 0
-3.8080852 -4.748714 1.2145464 0
-3.3632479 -4.719852 1.2544835 0
-5.5868168 -4.0759077 1.3348997 0
-4.7257123 -4.3520598 1.1732196 0
-4.2633042 -4.2734447 1.2449062 0
-3.7957485 -4.2937398 1.2908818 0
-3.1752157 -4.1706367 1.1676576 0
72.886864 -4.0088663 1.2733276 0
-5.5105639 -3.7964284 1.4121362 0
-5.2054939 -3.7305675 1.2661757 0
-4.8547554 -3.5770159 1.1456584 0
-4.1762848 -3.8037117 1.3221682 0
-3.8647182 -3.8000641 1.1962709 0
-3.2110126 -3.8607371 1.2454773 0
72.935036 -3.7817316 1.2739558 0
-6.1705828 -3.2611165 1.2206686 0
-5.8966184 -3.1320298 1.1496795 0
-5.2816262 -3.1215684 1.3144722 0
-4.823349 -3.275115 1.1829431 0
-4.3065739 -3.2898111 1.2078328 0
-3.7244866 -3.196193 1.1836005 0
-6.7062449 -2.6188936 1.3901072 0
-6.2833233 -2.6545765 1.3034017 0
-5.7607002 -2.8000367 1.235679 0
-5.1024494 -2.6704895 1.3650532 0
-4.8164887 -2.8147333 1.1523312 0
-4.1275711 -2.6174045 1.1459258 0
-3.7891192 -2.7681179 1.1234436 0
-6.7145233 -2.2326753 1.290168 0
-6.2079248 -2.3147151 1.2186048 0
-5.713048 -2.1375608 1.2429227 0
-5.2527199 -2.4973977 1.1211936 0
-4.703649 -2.2481983 1.2230752 0
-4.3310461 -2.4429176 1.1821022 0
-6.1675072 -1.821279 1.1783777 0
-5.7296243 -1.7331142 1.2620583 0
-5.2962642 -1.7846512 1.3332982 0
-4.8193116 -1.6546038 1.2203578 0
-4.2393899 -1.5856725 1.1127479 0
-22.956861 -1.0457975 1.2018429 0
-6.3785763 -1.2491134 1.1965677 0
-5.7078962 -1.0994098 1.4213464 0
-5.178411 -1.1593881 1.1997181 0
-4.8514867 -1.2378412 1.1824903 0
-4.46562 -1.4923525 1.1491108 0
-24.096043 -0.5843454 1.2606685 0
-23.191936 -0.625359 1.2133569 0
-22.683449 -0.89203197 1.1871889 0
-8.4311142 -0.67826265 1.4829555 0
-6.1459441 -0.63870919 1.1585733 0
-5.6987691 -0.75991452 1.3451449 0
-5.3225422 -0.85937637 1.1623106 0
-4.9858651 -0.78938228 1.128167 0
-22.918877 -0.22580564 1.1987028 0
-22.370338 -0.30147606 1.1699703 0
-22.913488 0.22603647 1.1984037 0
-7.5054355 0.37439337 1.0493653 0
-7.3317232 0.44887987 1.2195219 0
-6.9461837 0.26506504 1.467302 0
42.30125 0.29100737 1.4755507 0
-23.795656 0.97257417 1.2455958 0
-22.850168 0.68748134 1.1955625 0
-7.7349372 0.62755543 1.0838801 0
-7.2764916 0.80170596 1.224216 0
42.263466 0.75171787 1.4744339 0
-23.64793 1.1905096 1.2383944 0
-8.14293 1.3730139 1.3400598 0
-7.7632518 1.3622649 1.1961019 0
-7.1657224 1.1030864 1.2103685 0
-6.9825006 1.1068435 1.3648567 0
42.273865 1.2766287 1.4752365 0
-8.7111845 1.7869546 1.3616291 0
-8.2924652 1.6993364 1.2884625 0
-7.723866 1.727717 1.3290529 0
-7.3371539 1.8122884 1.1989164 0
-6.9982986 1.5421205 1.0003762 0
42.483574 1.6148534 1.4829494 0
42.516571 1.8825253 1.4844849 0
63.960724 1.8123552 1.1160464 0
65.753166 1.6604117 1.1472514 0
66.672752 1.5161165 1.1632378 0
-8.7592125 2.3900652 1.2163042 0
-8.183588 2.253396 1.1800032 0
-7.8327756 2.3094921 1.2535673 0
-7.3033352 2.3321726 1.1721566 0
-6.6510444 2.4506619 1.3035555 0
-6.3573904 2.4331298 1.2409868 0
-5.8729954 2.2877979 1.3128718 0
-5.0864062 2.3822489 1.2855012 0
-4.8548436 2.229094 1.1833258 0
-4.1394491 2.4063535 1.0442758 0
-3.9047871 2.1626787 1.0770127 0
42.283173 2.1987801 1.4768769 0
42.546631 2.01267 1.4857415 0
63.718704 2.2063866 1.112044 0
-8.1296568 2.6142001 1.231637 0
-7.8545303 2.6419165 1.353652 0
-7.2133904 2.7553391 1.2708471 0
-6.7551742 2.6613548 1.3899976 0
-6.2858582 2.7359252 1.3852637 0
-5.8384995 2.8079765 1.3170089 0
-5.2202253 2.6139147 1.1825368 0
-4.7012625 2.7661102 1.3138161 0
-4.2199068 2.6333876 1.1499438 0
39.636772 2.804965 1.3859289 0
63.793449 2.6001523 1.1136031 0
-7.2882252 3.3448522 1.1202507 0
-6.2486906 3.023632 1.2155372 0
-5.7706318 3.3995934 1.1724725 0
-5.4567008 3.2596099 1.1122745 0
-4.6716423 3.2324059 1.2049807 0
-4.4932747 3.4140384 1.1892549 0
36.924164 3.188082 1.2925378 0
-6.2019191 3.900254 1.1746497 0
-4.5317955 3.5190179 1.1059289 0
-6.6836324 4.2262235 1.3858861 0
-6.2092814 4.2557669 1.243799 0
-6.5465646 4.8080826 1.3294348 0
-6.2789917 4.7653303 1.302783 0
-5.7814713 4.8670583 1.0855054 0
-5.4726629 4.9866891 1.0337778 0
-6.6278133 5.3366776 1.2150453 0
-6.2199383 5.3108411 1.3313411 0
-5.6825218 5.3016691 1.2642519 0
-5.3620167 5.2884493 1.2385377 0
-6.0764718 5.5038805 1.2908971 0
41.367535 5.9601574 1.4578217 0
41.769173 5.8903098 1.4713628 0
42.151817 5.8091779 1.4842058 0
39.229118 6.2750301 1.3856497 0
39.831894 6.1219273 1.405612 0
40.234394 6.0543599 1.4191531 0
41.016548 6.0401282 1.4460956 0
-6.4498897 6.7848344 1.4750727 0
22.987143 6.9306812 1.255749 0
23.063667 6.7998419 1.257633 0
39.177715 6.7012763 1.3863127 0
-6.8173041 7.4378505 1.4112153 0
-6.4897771 7.4909916 1.3861641 0
22.790194 7.2572203 1.2509863 0
39.252254 7.2136726 1.3920013 0
-7.1548061 7.9312553 1.4944408 0
-6.7439365 7.737174 1.4357097 0
-6.2145433 7.84197 1.1779863 0
-5.9862494 7.9326 1.2143061 0
22.720419 7.6234941 1.2534462 0
23.039394 7.8894277 1.2737525 0
39.349457 7.7349582 1.398737 0
-7.102788 8.0229702 1.4991727 0
-6.5646968 8.3141499 1.2963417 0
-6.2624674 8.2521296 1.2906415 0
-5.8759279 8.3739719 1.2862084 0
-4.517488 8.3088055 1.1553214 0
-4.2710176 8.2619324 1.1774964 0
-3.9738054 8.4591913 1.3067427 0
23.027931 8.0447655 1.275846 0
39.418526 8.2537823 1.4047047 0
-6.1698861 8.5124569 1.4707813 0
-5.7496877 8.763669 1.2352899 0
-5.301249 8.9280424 1.3912706 0
-4.358119 8.8763428 1.2099699 0
-3.8391793 8.9391947 1.1886324 0
39.484947 8.6507263 1.4098699 0
39.540436 8.9169254 1.4137785 0
-9.3680191 9.4878683 1.1623091 0
-8.956543 9.4424629 1.1344192 0
-8.1416216 9.4528732 1.3061877 0
-7.5401511 9.1170998 1.0308781 0
-7.4951363 9.1490107 1.0305295 0
-6.1912265 9.1769657 1.325303 0
-5.8291779 9.3234348 1.2048949 0
-5.2471585 9.2064543 1.3263661 0
-4.7669044 9.2756758 1.244534 0
-4.1917119 9.1271973 1.2273055 0
-3.5637746 9.2830544 1.2867303 0
-3.4207082 9.1543312 1.3666799 0
39.596737 9.251976 1.4183155 0
-9.2533178 9.7240915 1.2350879 0
-8.8024416 9.7094421 1.2963827 0
-8.3056345 9.5845442 1.3279296 0
-7.3052378 9.9961739 1.0789881 0
-6.2371144 9.7272024 1.1416389 0
-5.7995791 9.5785294 1.2694337 0
-5.0933409 9.5453558 1.3225261 0
-4.828465 9.6535339 1.2555286 0
-4.0770006 9.7290096 1.3373934 0
-3.7874846 9.7045527 1.2219489 0
-8.9469223 10.197076 1.4207509 0
-7.2673721 10.043398 1.0803826 0
-6.4750085 10.220797 1.2658533 0
-5.8280134 10.301254 1.4473202 0
-5.2489376 10.326773 1.2802328 0
-4.8467197 10.273752 1.2218217 0
-4.2589922 10.453419 1.3800485 0
-3.5629313 10.0416 1.2087543 0
-3.4776111 10.094067 1.3049768 0
-6.1771836 10.590816 1.2103642 0
-5.8730149 10.612936 1.2698119 0
-5.0418215 10.641593 1.2325996 0
-4.7877765 10.965462 1.1833153 0
-4.2002258 10.808041 1.0103093 0
-3.7243414 10.712166 1.3866293 0
-3.436228 10.964369 1.4049097 0
16.944942 10.80002 1.4017563 0
17.177774 10.717924 1.1766394 0
-6.6412282 11.118399 1.1288413 0
-4.9177351 11.133627 1.274202 0
-3.7142286 11.284402 1.2246463 0
-3.2266417 11.209718 1.3465289 0
16.415827 11.357357 1.2337295 0
16.770529 11.154044 1.2152898 0
17.194118 11.09425 1.1584702 0
-4.158597 11.520951 1.4980179 0
-3.6880665 11.650764 1.1450553 0
16.193085 11.749287 1.2209781 0
15.965526 12.349308 1.4080577 0
16.077188 12.165348 1.230543 0
-3.7896242 12.698269 1.1551621 0
15.820314 12.832406 1.4210788 0
16.242397 12.530365 1.0725731 0
13.960556 13.460896 1.2397159 0
14.017436 13.40185 1.18325 0
34.470631 13.926328 1.2965862 0
34.714039 13.776975 1.3025423 0
33.722271 14.353047 1.2781591 0
34.212429 14.127083 1.2908975 0
24.505968 14.943261 1.0006384 0
33.231239 14.691591 1.267131 0
33.55983 14.529077 1.2753673 0
32.907814 15.288881 1.2654557 0
13.772433 15.961527 1.2865403 0
33.063721 15.67163 1.2760652 0
-4.6281662 16.448307 1.4907118 0
13.675456 16.044687 1.2865577 0
33.31311 16.040131 1.2894665 0
33.43808 16.612558 1.30217 0
33.53627 16.531303 1.3039848 0
15.960102 18.101925 1.2622385 0
16.141212 18.025537 1.2655531 0
-4.9627552 18.833822 1.358577 0
15.398354 18.867371 1.2737874 0
15.653049 18.698782 1.27549 0
-4.963089 19.200737 1.3834103 0
82.763626 19.756931 1.4843969 0
22.823349 21.426693 1.0915166 0
23.077114 21.465395 1.0989153 0
-5.3797302 24.334438 1.3035841 0
-5.3606024 24.988617 1.3368696 0
15.378297 24.887197 1.0199378 0
15.714473 24.780519 1.0230091 0
-5.849021 25.161846 1.3513143 0
-5.3448677 25.164694 1.3457319 0
15.167336 25.156946 1.0241374 0
-4.5666146 25.965511 1.3791571 0
-4.4445581 25.988676 1.3792617 0
-3.5753949 25.983374 1.3720396 0
-4.7877297 26.268696 1.3968467 0
-4.150034 26.231216 1.3893104 0
-3.7892854 26.324293 1.3912989 0
-5.1805038 26.993872 1.4379827 0
-4.8518863 26.628649 1.4160017 0
-4.2166228 26.914518 1.4252127 0
-5.2756019 27.184141 1.448729 0
-4.2980351 27.068262 1.4338657 0
18.653847 27.490494 1.1584539 0
18.867952 27.525976 1.1636889 0
23.374132 29.402216 1.3099875 0
23.585033 29.197445 1.3090103 0
22.951122 32.823605 1.396957 0
23.203695 32.74506 1.3997955 0
23.635944 32.926308 1.4137088 0
15.203468 33.283054 1.2761117 0
18.454967 36.785255 1.4354861 0
18.568638 36.72353 1.4353466 0
-5.7351193 38.847168 1.3695959 0
-5.2367387 38.784374 1.364989 0
-5.6095037 39.275368 1.383765 0
-5.202949 39.189232 1.3788557 0
-4.9235463 39.260532 1.3800658 0
58.209209 47.240707 1.3077087 0
58.242668 47.70929 1.3133285 0
58.335266 48.24485 1.320519 0
58.397652 48.745674 1.3269415 0
39.029972 51.649853 1.1291708 0
48.653625 51.850685 1.2402728 0
49.129112 51.712521 1.2442169 0
39.134106 52.127186 1.1369196 0
39.308044 53.030273 1.1513702 0
39.780914 53.336529 1.160585 0
21.649788 54.831802 1.0281562 0
21.299877 55.470211 1.0363239 0
21.646673 55.589012 1.0404426 0
22.244312 55.583115 1.0441775 0
15.811714 56.533592 1.0238279 0
-5.0833974 57.707859 1.0103546 0
-4.8916216 57.600006 1.0081906 0
-5.5410619 67.795723 1.1864845 0
-5.2310419 67.858376 1.1871476 0
-4.7886877 67.592323 1.1819468 0
-4.4841433 67.825722 1.1856467 0
-4.2942491 68.190659 1.19179 0
-4.1124768 68.56646 1.1981426 0
-3.9065647 68.74675 1.2010746 0
-3.1517355 76.427536 1.3343412 0
-3.3978558 76.553108 1.3367147 0
-2.9143603 76.508995 1.3355978 0
-3.7810211 77.269814 1.3495247 0
-2.7046049 77.361092 1.3503276 0
-2.3429272 77.282761 1.3487569 0
-1.7803842 77.312996 1.3490244 0
-4.1590438 77.512833 1.3540974 0
-1.1383711 81.523773 1.4223012 0
-0.86951303 81.671074 1.4248145 0
-0.64899343 84.380798 1.4720756 0
-0.38589564 84.830345 1.4798942 0
-0.12766643 -49.789654 1.7370178 0
0.10025823 -49.743683 1.7354124 0
-6.6104088 -49.320812 1.7360406 0
