# .PCD v0.7 - Point Cloud Data file format
VERSION 0.7
FIELDS x y z intensity
SIZE 4 4 4 4
TYPE F F F F
COUNT 1 1 1 1
WIDTH 1507
HEIGHT 1
VIEWPOINT 0 0 0 1 0 0 0
POINTS 1507
DATA ascii
-8.0980787 6.0187125 -0.87852991 0
16.887243 6.3095608 -0.94225657 0
17.094273 6.2937813 -0.79384226 0
-9.2638998 6.5351529 -0.98764884 0
-7.2053585 6.6606169 -0.68277639 0
-6.9176092 6.7639341 -0.50451863 0
17.064817 6.9211178 -0.96256292 0
-9.0259943 7.2995572 -0.60584098 0
-8.9970722 7.3225265 -0.60542232 0
11.825455 7.490315 -0.97547454 0
16.931667 7.4812055 -0.96758711 0
17.210632 7.2770834 -0.97679836 0
11.805558 7.5290551 -0.97575349 0
16.945549 7.6134896 -0.97107619 0
17.115055 7.5008349 -0.97679824 0
19.099337 7.7916827 -0.7186504 0
19.576235 7.8602276 -0.73498338 0
-8.2705097 8.4394579 -0.8229171 0
-7.9969473 8.3917971 -0.80722195 0
16.355263 8.3004932 -0.95868999 0
-8.5915318 8.6314526 -0.84823871 0
-8.1356506 8.7108107 -0.71469247 0
-7.9323797 8.9478798 -0.62415862 0
-7.0979958 8.8483629 -0.98822993 0
12.879661 8.891283 -0.71537101 0
15.453554 8.9290838 -0.93283606 0
17.304106 8.955761 -0.67872542 0
-8.2899647 9.3427372 -0.87008649 0
-7.8093238 9.1466255 -0.62779593 0
12.757854 9.1078911 -0.81899488 0
15.458001 9.0616198 -0.93653446 0
15.534586 9.272213 -0.94560605 0
17.263077 9.0000572 -0.67816699 0
19.998213 9.118001 -0.76583457 0
20.129513 9.1766777 -0.77086008 0
20.514618 9.1984615 -0.7834239 0
-11.298862 9.7593708 -0.68514794 0
-10.764897 9.7710876 -0.70715857 0
-10.454628 9.7828379 -0.83130223 0
-11.166475 10.26526 -0.58128738 0
-10.71365 10.269732 -0.62402016 0
-10.404488 10.229924 -0.63557971 0
-9.7536745 10.794698 -0.50636846 0
-9.2207556 10.85332 -0.99249506 0
-8.6323977 10.542116 -0.71155965 0
14.365308 10.828822 -0.94029391 0
-9.1379766 11.392258 -0.67810768 0
-8.8712759 11.224998 -0.85447901 0
-7.7303181 11.037966 -0.70370924 0
-7.240118 11.293091 -0.82537717 0
12.856283 11.342631 -0.89599156 0
13.359391 11.422942 -0.91867048 0
13.524727 11.312362 -0.9215315 0
14.20627 11.042991 -0.94047713 0
-9.1543274 11.758724 -0.6039291 0
-8.9007139 11.574585 -0.67808431 0
-7.1756363 11.558844 -0.94799054 0
12.854687 11.947347 -0.61115998 0
13.093189 11.809548 -0.9216013 0
18.355799 11.609335 -0.75676072 0
18.833982 11.832788 -0.77504802 0
-7.207725 12.197089 -0.98733312 0
12.322392 12.260747 -0.90848237 0
12.818893 12.218823 -0.86453724 0
13.021831 12.041301 -0.92697448 0
12.584927 12.717316 -0.93513882 0
-7.5271516 13.687582 -0.81612682 0
-7.4222288 13.701616 -0.81413817 0
13.046129 13.683727 -0.98831224 0
17.846783 13.699333 -0.78398234 0
18.693155 13.847188 -0.81069201 0
-9.7625523 14.417959 -0.91001761 0
11.801963 14.270453 -0.96802914 0
12.093028 14.060204 -0.96940142 0
18.648355 14.082837 -0.81436819 0
11.798437 14.704637 -0.77549702 0
12.309649 14.753856 -0.66931647 0
12.538471 14.699097 -0.67300189 0
11.436645 15.356263 -0.66695261 0
11.647064 15.16922 -0.70787835 0
14.808578 15.469751 -0.74615121 0
-7.3415971 15.859298 -0.91336709 0
11.416696 15.735594 -0.67721772 0
14.872019 15.822525 -0.75662106 0
15.034646 15.601817 -0.75494593 0
-9.2639494 16.092829 -0.64675742 0
-8.6498518 16.397947 -0.64573377 0
-7.2768464 16.246815 -0.9304496 0
14.822258 16.165274 -0.76420593 0
-7.8717623 16.826576 -0.64703667 0
-7.1949663 16.756399 -0.95318431 0
-8.008522 17.472534 -0.66951197 0
-7.9267635 17.158117 -0.65834409 0
-7.1636906 17.196133 -0.97376275 0
15.282305 17.468685 -0.80883074 0
13.206945 19.18401 -0.81165057 0
13.656559 19.445208 -0.82809526 0
-7.5161867 19.659538 -0.7333082 0
-7.3533249 19.777126 -0.73515093 0
11.72825 19.915398 -0.80543381 0
12.234229 19.825125 -0.81185538 0
12.820789 19.652178 -0.81771851 0
13.12729 19.520336 -0.81978917 0
-7.217186 20.17782 -0.74666309 0
11.537066 20.015057 -0.80506158 0
12.822906 20.2187 -0.83440506 0
-7.2515669 20.781891 -0.76695132 0
-7.3127823 21.382458 -0.78747231 0
-7.3099332 21.822334 -0.80199039 0
11.433665 21.990236 -0.86383229 0
11.733676 21.899139 -0.86592633 0
11.294768 22.060312 -0.86378574 0
13.727394 22.423954 -0.91646081 0
-7.455719 22.71949 -0.83333015 0
11.594488 22.990255 -0.89747548 0
-42.479401 23.455326 -0.8461625 0
-7.506671 23.243156 -0.85126853 0
-7.3839121 23.236277 -0.84973294 0
-42.774803 23.618984 -0.85206139 0
11.458414 24.3461 -0.93795878 0
12.1089 24.292984 -0.94619513 0
13.930234 24.338501 -0.97760469 0
15.522338 24.415213 -0.50416511 0
-42.758984 24.752323 -0.86155546 0
-42.405422 24.815289 -0.8567735 0
-41.926357 24.879881 -0.85014164 0
11.764678 24.793846 -0.95666504 0
14.067677 24.757128 -0.99268126 0
14.570118 24.837584 -0.5017916 0
15.829847 24.645828 -0.51044798 0
-44.167057 25.106949 -0.88595396 0
-43.761765 25.058685 -0.87939179 0
-42.696529 25.156765 -0.86417341 0
-7.5247269 25.30496 -0.92022991 0
14.51552 25.013018 -0.50395566 0
15.429323 25.210875 -0.51509035 0
-7.5313411 25.761486 -0.93558568 0
11.422083 25.926357 -0.98765582 0
11.682464 25.787498 -0.98695779 0
15.541572 25.66465 -0.52287412 0
-7.5716467 26.361589 -0.9561066 0
11.921732 26.056904 -0.99896318 0
-7.4555264 26.674204 -0.96550626 0
10.317402 26.725569 -0.99873048 0
-42.286175 27.279076 -0.87753028 0
11.304829 27.231724 -0.51382673 0
11.714302 27.400539 -0.51931381 0
-42.357925 27.793543 -0.88347572 0
-8.5848351 27.745962 -0.50611979 0
-8.2457924 27.626205 -0.50240588 0
11.203701 27.678019 -0.52036095 0
12.07518 27.774113 -0.52779567 0
-8.7782831 28.075312 -0.5126121 0
-8.1491909 28.193424 -0.51142532 0
-7.7567735 28.48646 -0.51449692 0
11.214092 28.0833 -0.52699286 0
12.38909 28.132278 -0.53571904 0
12.560696 28.042934 -0.53550965 0
-8.0500355 28.866119 -0.52224582 0
-7.8786955 28.598198 -0.51694024 0
11.263619 28.597197 -0.53564924 0
12.698369 28.590233 -0.54521316 0
-42.10207 29.215027 -0.89365625 0
-41.90078 29.466221 -0.89328402 0
-40.812675 29.463314 -0.87778628 0
-7.6874404 29.131998 -0.52507305 0
11.150969 29.234892 -0.54531789 0
-42.006611 29.92588 -0.89942724 0
-40.676228 29.549444 -0.87673908 0
-7.7607503 29.598974 -0.53327572 0
-42.003365 30.122993 -0.90138185 0
-8.0310345 30.243231 -0.54535276 0
-7.6577654 30.150078 -0.54214156 0
-7.390058 30.496748 -0.54688859 0
-7.6120567 30.777933 -0.55257809 0
-7.5175085 31.43277 -0.56329381 0
-7.2157011 31.161564 -0.55748224 0
-42.118713 31.7183 -0.91949749 0
-7.0460939 31.545891 -0.56336367 0
-6.9495363 31.57959 -0.56357312 0
-42.180439 32.070961 -0.92407 0
-41.826908 32.218952 -0.92074245 0
-7.5708256 34.903049 -0.62256223 0
-7.5566249 35.372482 -0.63052058 0
10.545052 35.309513 -0.64238811 0
-7.5391812 35.842239 -0.63847882 0
-7.5504231 36.464985 -0.64915967 0
11.873281 37.662865 -0.6884625 0
12.17619 37.803505 -0.69240677 0
12.56098 37.974548 -0.69732839 0
11.795786 38.242119 -0.6977123 0
12.462785 38.07843 -0.69851506 0
12.829134 38.20129 -0.70256406 0
13.175001 38.430244 -0.70828843 0
11.714804 38.737358 -0.70556593 0
-7.6444845 39.374825 -0.69928306 0
-7.8133583 39.582203 -0.70340174 0
-7.6682706 40.172592 -0.71303552 0
-7.6591325 40.821514 -0.72413528 0
-7.6201606 41.292519 -0.73209351 0
-7.1418014 41.622639 -0.73630542 0
-6.8222971 42.94883 -0.75823724 0
-6.7086897 43.108391 -0.76068056 0
-6.2986073 43.091476 -0.75931931 0
-6.1337829 43.890865 -0.77272272 0
-6.1507602 49.423298 -0.86850154 0
-6.7687588 49.58062 -0.87262034 0
-6.0680404 49.973419 -0.87785602 0
-6.7316942 50.493637 -0.88832754 0
-5.8588481 50.225815 -0.88180029 0
-5.6066189 50.797836 -0.89122462 0
-5.4513855 51.657387 -0.9058497 0
-5.4107046 53.615547 -0.93977714 0
-5.2879467 54.990067 -0.96344262 0
-5.0990791 55.738808 -0.97614801 0
-4.9129915 56.5826 -0.99052876 0
-7.7182894 -27.372452 -0.49557853 0
-7.6467972 -26.798254 -0.48559573 0
-7.4192772 -26.77911 -0.48419958 0
-7.7231331 -26.156174 -0.4752081 0
-6.3055387 -19.270023 -0.35307384 0
-7.4044037 -17.905218 -0.33736667 0
-8.3832321 -17.0504 -0.33080456 0
-7.3265672 -17.059471 -0.32323605 0
-9.067152 -16.702885 -0.3308976 0
-8.8310289 -16.69828 -0.32888475 0
-8.0490141 -16.69865 -0.32272989 0
-7.729692 -16.763691 -0.32138023 0
-9.0799942 -16.445055 -0.32705811 0
-8.9935369 -16.469742 -0.32670903 0
-7.0661016 -13.935265 -0.27188519 0
-6.9826088 -13.987775 -0.27204809 0
-8.1021376 -13.2938 -0.27090791 0
-8.1376925 -12.575887 -0.26062259 0
-7.8226233 -12.913213 -0.26269364 0
-9.5099735 -11.854727 -0.26443887 0
-9.3719406 -11.796022 -0.26213515 0
-8.0881596 -11.714816 -0.29695514 0
-7.9798784 -11.762605 -0.24726568 0
-11.233464 -11.395791 -0.27847061 0
-10.863897 -11.230795 -0.27190849 0
-9.8349943 -11.143697 -0.25859812 0
-8.6313457 -11.336236 -0.37215218 0
-8.3692579 -11.388695 -0.36791775 0
-7.9498811 -11.259606 -0.41950113 0
-10.543006 -10.899804 -0.2638571 0
-9.781311 -10.830846 -0.25389758 0
-9.3560171 -10.789963 -0.43459547 0
-8.7413187 -10.632071 -0.35954115 0
-8.8568096 -8.3272705 -0.42284232 0
-7.2707086 -7.1136761 -0.17671144 0
16.713266 -7.4077067 -0.31826207 0
-9.5318727 -6.5869355 -0.20140077 0
-7.1565895 -6.7097535 -0.17040531 0
-9.143383 -6.2766933 -0.19274437 0
-8.7705555 -6.0790596 -0.37098163 0
-8.4021454 -6.4600878 -0.18415779 0
-7.5095987 -6.1722307 -0.1688346 0
-7.3965969 -6.1583376 -0.33310026 0
-6.8579779 -6.0039196 -0.15825842 0
-10.233922 -5.5255961 -0.20216867 0
-8.5115137 -5.9584312 -0.36113998 0
-8.2565374 -5.6590271 -0.23182787 0
-7.6876998 -5.6946678 -0.16619346 0
-7.2316003 -5.7702088 -0.32092333 0
-6.9294286 -5.6750641 -0.15553583 0
-10.005708 -5.3419461 -0.19714239 0
-9.6067686 -5.1275697 -0.37858972 0
-9.2200632 -5.0572238 -0.36556062 0
-8.768754 -5.2778378 -0.17780511 0
-8.1262026 -5.1636205 -0.2505711 0
-7.7708683 -5.1712804 -0.32428613 0
-7.1687322 -5.2106948 -0.30753425 0
-6.8808527 -5.2848611 -0.25836253 0
-9.604641 -4.8518295 -0.37408769 0
-9.1915121 -4.8603268 -0.27121773 0
-8.7114706 -4.8015518 -0.24697384 0
-8.206336 -4.8715129 -0.30415979 0
-7.7666411 -4.7649989 -0.27322686 0
-7.3575878 -4.7888417 -0.15239441 0
-6.6341405 -4.7424421 -0.14150412 0
14.064767 -4.5091257 -0.25696921 0
-10.087833 -4.4070177 -0.19131328 0
-9.7541294 -4.3012533 -0.29542869 0
-8.8209257 -4.348208 -0.28075388 0
-7.5209231 -4.4185252 -0.15141708 0
14.094967 -4.4471111 -0.25714374 0
-8.8130598 -3.8023393 -0.33349958 0
-8.0427437 -3.8758924 -0.46537134 0
-7.5977073 -3.7048714 -0.21951747 0
-7.4232659 -3.5139017 -0.42789876 0
-9.8928471 -3.2549558 -0.18094654 0
-9.0496664 -3.2928271 -0.33461636 0
-8.7447224 -3.2924054 -0.24243569 0
-8.4559126 -3.1165428 -0.25015521 0
-7.5837107 -3.0723114 -0.26301578 0
-7.2209258 -3.3561802 -0.24738076 0
-6.9934349 -3.1924703 -0.40037006 0
-10.606926 -2.9832635 -0.1914878 0
-9.7286558 -2.6967616 -0.17537922 0
-9.0892429 -2.7537906 -0.4123098 0
-8.6687651 -2.7907343 -0.26941425 0
-8.4274178 -2.7073567 -0.30702564 0
-7.6943231 -2.9227319 -0.32884273 0
11.067614 -2.7696855 -0.29754028 0
-10.4352 -2.3731079 -0.37202865 0
-8.6882143 -2.3748474 -0.36531129 0
-8.1965694 -2.2600124 -0.34038743 0
-7.8406043 -2.1169295 -0.38315934 0
-7.2053008 -2.2628772 -0.23494753 0
-10.746202 -1.6654648 -0.18897466 0
-10.418529 -1.5498756 -0.18301757 0
-9.3417616 -1.7089018 -0.41319326 0
-8.6124153 -1.7511181 -0.22916168 0
-8.1019249 -1.7223235 -0.35406736 0
-7.8886557 -1.8103455 -0.33454913 0
-10.777851 -1.3018265 -0.37742642 0
16.881063 -1.3574572 -0.29477113 0
16.754303 -0.80315042 -0.29194382 0
20.710672 -0.76957488 -0.36091578 0
-9.5046434 -0.35193637 -0.4959355 0
-9.2536812 -0.19179025 -0.4826422 0
-8.9835358 -0.072670236 -0.46830213 0
10.814191 -0.17075963 -0.277062 0
-9.0197983 0.024817564 -0.47018623 0
-7.5471573 0.31760341 -0.26203686 0
-9.6366901 0.81952649 -0.35451058 0
-9.3113794 0.90996552 -0.4385654 0
-10.629668 1.3989226 -0.18630444 0
-10.310534 1.1963288 -0.18035316 0
-9.2617483 1.225214 -0.40571037 0
-8.9532137 1.4213119 -0.43325698 0
-11.305975 1.838025 -0.19909705 0
-10.699053 1.8068607 -0.18857326 0
-10.184667 1.8458221 -0.3102133 0
-9.9846201 1.6814773 -0.31671131 0
-9.1294193 1.7309167 -0.48448437 0
-8.9159985 1.5719639 -0.47196567 0
-8.0731487 1.508858 -0.42789876 0
-7.9088707 1.9810135 -0.28303492 0
-10.537505 2.1463072 -0.18688037 0
-10.172869 2.1984715 -0.25779349 0
-9.7051296 2.3661618 -0.24271397 0
-9.3505354 2.4699244 -0.33597815 0
-8.8177643 2.3200779 -0.42245936 0
-7.6980987 2.0551264 -0.38668638 0
13.056221 2.330199 -0.34595886 0
-10.075249 2.7575288 -0.36309436 0
-9.7539959 2.6978025 -0.21438137 0
-9.1454525 2.7704384 -0.27385497 0
-8.8194733 2.8285463 -0.39172482 0
-7.5344977 2.8657458 -0.41994372 0
-7.3927903 2.9664776 -0.27637881 0
21.722723 2.7339754 -0.38132346 0
-9.6570988 3.2649689 -0.21215475 0
-9.2748194 3.2584438 -0.2421246 0
-8.8606348 3.2370908 -0.34143791 0
-8.3451548 3.3126261 -0.4680928 0
-7.7777343 3.4346664 -0.32120401 0
-7.3325186 3.1295881 -0.2769725 0
-10.214856 3.6173582 -0.18831146 0
-9.230217 3.5749061 -0.25854847 0
-8.7413015 3.6632624 -0.32857308 0
-8.1408768 3.7300215 -0.31102431 0
-7.7010612 3.56919 -0.31184357 0
-7.4934559 3.5148859 -0.43124831 0
21.299957 3.9594791 -0.37732103 0
-9.7072315 4.2671528 -0.18426251 0
-9.302103 4.283855 -0.23645067 0
-7.7110019 4.2157888 -0.3299419 0
20.490627 4.472012 -0.36524394 0
20.741108 4.3244047 -0.36898574 0
21.159487 4.1036234 -0.37538382 0
-9.5285168 4.6224294 -0.18401816 0
-9.3144617 4.5982242 -0.23919643 0
-7.7522688 4.7563276 -0.40962783 0
-7.4293723 4.7611961 -0.45992836 0
20.493196 4.6395693 -0.3659246 0
20.856855 4.9267826 -0.37323716 0
20.81229 5.1197338 -0.37327206 0
-8.8874578 5.8926902 -0.37070248 0
-7.0535984 5.7931995 -0.47583851 0
16.314539 5.9728065 -0.30241531 0
16.659491 5.7506042 -0.30679005 0
-9.4276342 6.043272 -0.38937369 0
-8.9365034 6.1685562 -0.37751949 0
16.26943 6.014339 -0.30192664 0
-9.0079746 7.3988705 -0.40539253 0
-8.9758625 7.4659557 -0.40602076 0
-8.9470997 7.5376816 -0.40685833 0
-8.2943668 8.4045982 -0.33587781 0
-8.2173805 8.6101904 -0.276297 0
12.751658 8.861413 -0.2702131 0
20.444269 8.7228079 -0.3871409 0
20.52523 8.6068659 -0.38765284 0
22.066309 8.7379551 -0.41343006 0
-8.66436 9.3296919 -0.44294444 0
-8.4670877 9.0600004 -0.43135777 0
-7.9187112 9.191083 -0.42197675 0
12.60724 9.0520964 -0.27007017 0
19.92597 9.3141365 -0.38309196 0
20.076834 9.1961355 -0.38461614 0
-12.046918 9.7558012 -0.2697444 0
-11.641167 9.6676607 -0.26329398 0
-11.254122 9.7291231 -0.25883663 0
-10.973075 9.7544966 -0.25543344 0
-10.032825 9.9157286 -0.24538082 0
-9.7692795 9.7157516 -0.23965643 0
-8.0970478 9.9524727 -0.22311155 0
-7.6760654 9.7700872 -0.21604915 0
-11.20505 10.213903 -0.26381058 0
-10.747993 10.171033 -0.25745788 0
-9.5368271 10.401218 -0.49110574 0
-9.2026148 10.342398 -0.30204761 0
-7.8681965 10.114107 -0.22283234 0
19.357536 10.07707 -0.38009015 0
-9.7223377 10.672241 -0.25115758 0
-9.3016863 10.753421 -0.3709656 0
-8.7056408 10.655657 -0.4788211 0
-8.8814754 11.235554 -0.24915056 0
-7.782248 11.23416 -0.23771174 0
-7.245441 11.297978 -0.36962959 0
-7.1696692 11.518845 -0.47212037 0
20.763758 12.42043 -0.42148721 0
21.138826 12.465221 -0.42751417 0
20.412313 12.947746 -0.42109168 0
20.652033 12.746257 -0.42277873 0
21.688824 12.697573 -0.43784598 0
-8.0209761 13.433314 -0.27225754 0
-7.9723158 13.452952 -0.27211791 0
20.341097 13.037174 -0.42088223 0
20.768517 13.444464 -0.43100464 0
18.577652 13.813795 -0.40325528 0
20.694908 13.535642 -0.43079519 0
11.652329 15.651988 -0.33976343 0
18.792686 15.849939 -0.42828202 0
19.189161 15.677567 -0.43168527 0
19.718546 15.75601 -0.43973082 0
20.933899 15.715068 -0.45606631 0
-9.2735949 16.401016 -0.32803544 0
17.340282 16.448326 -0.41634461 0
18.633661 16.199312 -0.43014362 0
20.393198 16.226814 -0.45406508 0
20.887611 16.217194 -0.46074349 0
21.162945 16.134621 -0.46367553 0
18.751322 16.838547 -0.43906763 0
21.220631 16.635632 -0.46981874 0
-7.8205719 17.26453 -0.32999012 0
17.466698 17.470577 -0.43037635 0
17.524158 17.412941 -0.43037635 0
18.790695 17.137976 -0.44308168 0
19.007948 17.445604 -0.4495042 0
-7.9070344 17.672997 -0.33711067 0
17.994581 17.773439 -0.44063833 0
18.131853 17.630465 -0.44060344 0
18.666914 18.321878 -0.45571724 0
20.178846 18.753769 -0.48001102 0
20.50786 18.940033 -0.48643348 0
17.613075 19.217943 -0.45418143 0
18.172289 19.703445 -0.46702641 0
18.993628 19.83712 -0.47854495 0
18.780884 20.107904 -0.47942922 0
19.302681 20.346395 -0.48870227 0
13.959831 20.662638 -0.43442529 0
14.111801 20.573509 -0.43463472 0
14.644848 20.997646 -0.44601369 0
-9.1877327 21.242777 -0.40315059 0
-7.7544641 21.402039 -0.39650121 0
17.657866 21.198956 -0.480744 0
18.072357 21.365574 -0.48762023 0
-8.9027691 21.78566 -0.40995702 0
-8.4307718 21.884823 -0.40852594 0
15.360883 21.731239 -0.46367553 0
-11.203341 22.434513 -0.43686864 0
-8.4801903 22.221386 -0.41432011 0
14.753334 22.429466 -0.46777105 0
15.665075 22.309479 -0.47498471 0
-8.5521708 22.829741 -0.4246985 0
-11.562111 23.337029 -0.45376256 0
-7.8875904 23.414103 -0.4304229 0
-8.0839748 23.509295 -0.43309891 0
-7.8158302 23.679831 -0.43442529 0
-7.8857131 24.132557 -0.44231379 0
12.310205 24.379202 -0.4758783 0
12.682752 24.175743 -0.47569674 0
15.13914 24.14308 -0.49657914 0
12.14997 24.824701 -0.48159337 0
13.759732 24.979509 -0.49695724 0
14.189414 24.890112 -0.49926099 0
13.902057 25.02107 -0.49878979 0
12.409274 25.754065 -0.49816149 0
10.374586 26.703217 -0.49920866 0
98.902939 -78.87011 0 0
98.921379 -78.37764 0 0
99.028221 -77.984261 0 0
-1.84121 -66.094498 0 0
-2.0335941 -65.968796 0 0
101.02453 -62.760639 0 0
101.09183 -62.363152 0 0
101.15192 -61.767937 0 0
101.27068 -61.187439 0 0
101.33549 -60.792858 0 0
-6.8133883 -57.526058 0 0
-6.4651237 -57.598438 0 0
-8.0160503 -57.015385 0 0
-6.5899649 -57.177635 0 0
-6.2512894 -57.404758 0 0
-8.1040344 -56.708 0 0
-7.2425137 -56.634747 0 0
-6.9249105 -56.936565 0 0
102.76748 -56.356804 0 0
103.23048 -55.980114 0 0
103.71518 -55.611916 0 0
104.13613 -55.230885 0 0
104.44008 -54.972427 0 0
10.211655 -54.324524 0 0
43.624016 -54.347481 0 0
105.20972 -54.3265 0 0
105.73183 -53.966679 0 0
106.02736 -53.720882 0 0
106.26321 -53.422241 0 0
106.57011 -53.157784 0 0
107.22873 -52.647579 0 0
107.50726 -52.433327 0 0
53.704758 -42.042877 0 0
54.70332 -42.014935 0 0
53.795082 -41.842594 0 0
54.344013 -41.996315 0 0
34.393841 -41.263752 0 0
49.952866 -41.113277 0 0
50.320168 -41.151176 0 0
34.44175 -40.949806 0 0
34.555725 -40.701546 0 0
46.870579 -40.579182 0 0
47.228024 -40.630291 0 0
47.997524 -40.77047 0 0
48.402702 -40.867653 0 0
48.766552 -40.913654 0 0
25.882309 -40.264977 0 0
26.249062 -40.284897 0 0
26.594025 -40.259506 0 0
27.791151 -40.324162 0 0
28.295469 -40.249477 0 0
28.735029 -40.338398 0 0
29.19602 -40.189083 0 0
30.335503 -40.027679 0 0
34.628555 -40.278938 0 0
43.969208 -40.01582 0 0
44.364632 -40.121693 0 0
44.833786 -40.177361 0 0
45.311115 -40.222195 0 0
45.764172 -40.368134 0 0
46.296814 -40.458546 0 0
13.95553 -39.762222 0 0
14.078827 -39.714493 0 0
15.329736 -39.864159 0 0
15.892773 -39.524529 0 0
16.101225 -39.535145 0 0
16.815268 -39.519329 0 0
17.262373 -39.538593 0 0
26.757418 -39.724762 0 0
29.330048 -39.720848 0 0
29.589922 -39.687485 0 0
30.004879 -39.98151 0 0
30.752594 -39.932076 0 0
31.132427 -39.909466 0 0
34.719078 -39.753128 0 0
41.190693 -39.526894 0 0
41.665607 -39.614681 0 0
42.180923 -39.727631 0 0
42.814468 -39.826332 0 0
43.323071 -39.927727 0 0
43.675171 -39.999725 0 0
16.353289 -39.442947 0 0
17.50279 -39.092766 0 0
18.486673 -39.30574 0 0
34.806786 -39.236439 0 0
38.739349 -39.036285 0 0
39.351078 -39.15744 0 0
39.777813 -39.218372 0 0
40.199734 -39.262321 0 0
40.712002 -39.429905 0 0
14.598957 -38.676517 0 0
17.277683 -38.917213 0 0
17.614185 -38.84948 0 0
18.013252 -38.613159 0 0
34.906002 -38.500111 0 0
35.817078 -38.521568 0 0
36.194817 -38.568214 0 0
36.74152 -38.668129 0 0
37.316521 -38.782436 0 0
37.720661 -38.848076 0 0
38.173321 -38.945633 0 0
8.3820448 -38.313927 0 0
14.055245 -38.119492 0 0
17.716618 -38.439816 0 0
34.961884 -38.319519 0 0
35.330448 -38.358696 0 0
66.686356 -38.19503 0 0
8.2643881 -37.772171 0 0
8.8430595 -37.877438 0 0
9.2260323 -37.666447 0 0
9.9152431 -37.685589 0 0
10.256283 -37.540306 0 0
10.69319 -37.573776 0 0
13.731854 -37.624592 0 0
66.40815 -37.629002 0 0
8.4749088 -37.358929 0 0
9.4897203 -37.473217 0 0
9.7435532 -37.252571 0 0
10.230698 -37.445503 0 0
10.628213 -37.345184 0 0
11.806451 -37.298691 0 0
12.086782 -37.176624 0 0
12.756987 -37.451042 0 0
66.463287 -37.384895 0 0
66.694618 -37.102249 0 0
9.5699825 -36.841476 0 0
10.838589 -36.81163 0 0
11.248108 -36.932014 0 0
12.299832 -36.864914 0 0
12.657393 -36.779072 0 0
17.480915 -36.723793 0 0
18.585405 -36.523342 0 0
58.054146 -36.652016 0 0
17.826067 -36.131184 0 0
18.183464 -36.15284 0 0
18.57053 -36.212029 0 0
58.295719 -36.463215 0 0
18.487797 -35.773235 0 0
20.828255 -35.844044 0 0
18.422262 -35.246002 0 0
20.260868 -35.38155 0 0
20.603409 -35.215775 0 0
18.339428 -34.577637 0 0
20.571663 -34.909718 0 0
18.405262 -34.338589 0 0
18.633669 -34.246914 0 0
20.391989 -34.235031 0 0
41.273346 -34.294735 0 0
20.436209 -33.956852 0 0
20.656975 -33.721909 0 0
28.973864 -32.247768 0 0
15.212206 -31.443611 0 0
16.887377 -30.462307 0 0
-6.6886535 -29.137722 0 0
-6.3430967 -29.303326 0 0
-5.9156628 -29.3009 0 0
-5.418458 -29.16707 0 0
-4.7599688 -29.150028 0 0
-7.0820661 -28.802227 0 0
-6.8722177 -28.836334 0 0
-6.1711712 -28.93524 0 0
-5.9807162 -28.920206 0 0
-7.4614449 -28.313446 0 0
-7.5577679 -27.599863 0.24908075 0
-7.2937222 -27.74593 0.12490688 0
-7.5983143 -27.28179 0 0
-7.432416 -27.331594 0 0
-6.8116579 -27.183678 0 0
-8.8147364 -26.740471 0.49062204 0
-7.5274844 -26.703449 0 0
-7.4277487 -26.938625 0.48692214 0
-8.5866461 -26.327026 0.48252413 0
-7.6668558 -26.197142 0.47561297 0
-7.4286742 -26.319666 0.23962155 0
-7.6645856 -25.905985 0.47072631 0
-7.2907996 -20.512974 0 0
-6.8292732 -20.735048 0 0
-7.3906775 -20.487862 0 0
-7.1343632 -18.591183 0.34674442 0
-7.2192044 -18.303802 0.34260818 0
-7.8813415 -17.728554 0.20307621 0
-8.1782513 -17.120525 0.26395017 0
52.419678 -17.225327 0 0
-8.826107 -16.742609 0.16493395 0
-8.2252226 -16.851871 0 0
45.528564 -15.830042 0 0
39.492702 -14.608958 0 0
-6.9424787 -14.019314 0 0
39.448196 -14.451985 0 0
39.563007 -14.305969 0 0
-7.5914412 -13.530111 0.19297375 0
-7.1670961 -13.830297 0.15451862 0
-6.9861879 -13.987314 0.13598914 0
33.920326 -13.511029 0 0
36.667435 -13.884289 0 0
-7.7419996 -13.269043 0.10739513 0
33.940281 -13.395582 0 0
-9.1177387 -12.584229 0 0
-8.040575 -12.644094 0 0
-7.7708955 -12.827012 0.21716611 0
-7.2410617 -12.500099 0.25131467 0
-10.218493 -12.095876 0.27555257 0
-8.81036 -12.365234 0.26419452 0
-8.4129906 -12.387023 0.26052952 0
-7.2801356 -12.482012 0.25138444 0
-10.675963 -11.660689 0.27511972 0
-8.5639744 -11.978424 0.12778652 0
-8.2461834 -11.6996 0.31093067 0
-10.538952 -11.229127 0 0
-10.32023 -11.182156 0.087727435 0
-9.1082783 -11.028487 0.49780643 0
-8.5371141 -11.236087 0.081630722 0
-8.3084164 -11.308517 0.2054653 0
78.215729 -11.245911 0 0
-9.5234394 -10.69975 0 0
-9.4089546 -10.69313 0.31551149 0
-8.6642628 -10.742495 0.4802869 0
-8.3309774 -10.777946 0.32535574 0
78.315704 -10.79394 0 0
-11.086932 -10.312802 0.26346153 0
36.200958 -10.230999 0 0
78.36409 -10.299544 0 0
19.844255 -9.635025 0.38421473 0
36.290184 -9.7723083 0 0
78.418503 -9.8126221 0 0
19.836809 -9.2904501 0.3815096 0
20.412361 -9.4414425 0 0
36.305447 -9.4697084 0 0
78.534126 -9.2083864 0 0
19.977493 -8.9061728 0.38095114 0
20.227091 -8.7017879 0.2080771 0
20.701416 -8.557209 0.1554102 0
36.485649 -8.637394 0 0
78.570587 -8.8375063 0 0
20.237072 -8.4977007 0.38227749 0
20.567995 -8.3135681 0.38639626 0
36.564381 -8.236517 0 0
78.625122 -8.3573847 0 0
16.783279 -7.6374111 0.32101956 0
36.665516 -7.7223406 0 0
78.655746 -7.9862137 0 0
-9.2395697 -7.0768762 0.2023083 0
-7.5537124 -7.2316346 0.1463656 0
-7.3136101 -7.0639114 0.23671167 0
-6.9114585 -7.1438165 0.17266248 0
16.630871 -7.4257402 0.079286285 0
36.732265 -7.3789454 0 0
-10.730775 -6.7367554 0.2203192 0
-8.7946281 -6.6974425 0.19211608 0
-8.2201042 -6.5370851 0.18248236 0
-7.7770004 -6.7169237 0.089356318 0
-7.3050938 -6.8963799 0.13086224 0
-6.9137878 -6.908957 0.3396419 0
-6.279027 -6.6288476 0.31716663 0
-8.4932537 -6.4263835 0.18506531 0
-7.7009006 -6.2463675 0.17217231 0
-7.1397762 -6.1924844 0.26400253 0
-6.8353443 -6.2090554 0.19927908 0
-7.83322 -5.5572605 0.13800305 0
-7.1838288 -5.8036976 0.30813745 0
-6.8809557 -5.7794981 0.23463698 0
-31.68483 -5.4498463 0 0
-31.017334 -5.1875257 0 0
-9.6239052 -5.3527813 0.28778124 0
-9.4631462 -5.0454049 0 0
-8.5538158 -5.0161886 0 0
-8.280447 -5.3640847 0.29449195 0
-7.7137909 -5.1601396 0.23061684 0
-7.2340136 -5.1831474 0.234091 0
-6.8505635 -5.1992111 0.278079 0
13.830928 -5.1650963 0.25686949 0
-8.6683846 -4.6886129 0.22641349 0
-8.1263227 -4.792727 0.36063045 0
-7.6766763 -4.8337317 0.20238471 0
-7.1857224 -4.823266 0.2015795 0
-6.7875533 -4.8870673 0.072567105 0
13.84637 -4.926053 0.25568941 0
-10.933518 -4.1568003 0.40678853 0
-9.4113865 -4.1756597 0 0
-8.4078493 -4.4048347 0.10958948 0
-7.5573254 -4.3755383 0.22642867 0
-7.0535645 -4.2234678 0.42838725 0
-6.8616157 -4.1817975 0.26229113 0
13.374366 -4.3609767 0.48957014 0
13.540834 -4.3535953 0.49501446 0
14.080577 -4.4121871 0.11000999 0
-31.062469 -3.7175529 0 0
-30.74696 -3.6765904 0 0
-10.30187 -3.9729848 0.38389447 0
-9.6157799 -3.529439 0.31174648 0
-9.35116 -3.6337845 0.17422278 0
-8.7615204 -3.5853424 0.081502743 0
-8.2964497 -3.7572162 0.3569386 0
-7.7078228 -3.6622159 0.22974326 0
-7.3123202 -3.61763 0.082169659 0
-6.9251528 -3.8492458 0.13795947 0
-37.877373 -3.1015022 0 0
-30.874557 -3.4985123 0 0
-9.6534262 -3.0059664 0.17564102 0
-9.2753592 -3.391711 0.085121192 0
-8.698349 -3.3114829 0.064769372 0
-8.1824093 -3.3717134 0.17270958 0
-7.7114964 -3.2417312 0.2104142 0
-7.3661437 -3.204268 0.20588957 0
-6.7879915 -3.2621675 0.35428721 0
-37.632565 -2.8459766 0 0
-10.564175 -2.5524001 0 0
-10.260759 -2.5135524 0 0
-9.7021246 -2.8273947 0.058547005 0
-9.2891254 -2.8287394 0.056662153 0
-8.8703022 -2.8142087 0.16032115 0
-8.3854513 -2.8110256 0.46097514 0
-7.7123718 -2.8222651 0.42789879 0
-7.2644262 -2.566035 0.24744298 0
11.079231 -2.772284 0.18607175 0
-10.576095 -2.485122 0 0
-10.262703 -2.4766247 0.090822324 0
-9.8999901 -2.3305187 0.17668815 0
-9.1545982 -2.1950245 0.32491782 0
-8.8916712 -2.2671146 0 0
-8.3317041 -2.2110729 0.25916246 0
-7.6564984 -2.2140305 0.30643177 0
-7.3369198 -2.33059 0.26763847 0
-38.328995 -1.7300574 0 0
-10.643928 -1.5496505 0 0
-10.347024 -1.6154026 0.12103146 0
-9.8432398 -1.8031235 0.34779444 0
-9.2833576 -1.8418434 0.14189842 0
-8.7558565 -1.8988158 0.26731306 0
-8.2192507 -1.7863866 0.22729915 0
-7.6227989 -1.8443928 0.10793145 0
-7.2162685 -1.8366805 0.3299841 0
-6.918714 -1.9007598 0.12440075 0
-10.809173 -1.1302888 0 0
-10.244751 -1.4591641 0 0
-9.2482405 -1.0829682 0.48546833 0
-8.8285341 -1.301074 0.34950554 0
-8.3600159 -1.4719568 0.09836176 0
16.880352 -1.4182597 0.11806204 0
21.041557 -1.3700938 0 0
-10.601615 -0.86097372 0.18482098 0
-9.6601906 -0.52816951 0.41907987 0
-9.4743233 -0.53724927 0.43995222 0
10.813138 -0.54562217 0.26366192 0
-30.73258 -0.29082999 0 0
-30.440096 -0.0506052 0 0
-9.4510441 -0.45049411 0.4112801 0
10.831043 -0.25691369 0.18837756 0
-30.500107 0.04497014 0 0
-30.273556 0.18214422 0 0
-29.965839 0.36840206 0 0
-7.5459061 0.3212983 0.19495164 0
0 0 0 0
10.900129 0.017694948 0 0
11.021314 0.048139364 0.38319647 0
-30.016115 0.69396514 0 0
-29.941229 0.63297981 0 0
-10.26943 0.99877149 0.35862723 0
79.772018 0.81082654 0 0
-10.576303 1.2887152 0.18513513 0
-10.330937 1.2925478 0.17245671 0
-9.8908892 1.3356398 0.23134308 0
79.871307 1.1815586 0 0
-10.556234 1.8352877 0.18615392 0
-10.19013 1.6845111 0.15387574 0
-9.7833366 1.7514027 0.17271198 0
-9.2109003 1.7828249 0.37858585 0
12.923315 1.9071802 0.45450315 0
79.880447 1.6765559 0 0
-31.098043 2.2047482 0 0
-30.887926 2.3360775 0 0
-10.536883 2.4305644 0.3759374 0
-10.227339 2.3333385 0.14564395 0
-9.7665339 2.1695626 0.16350728 0
-9.3293314 2.4609845 0.25029469 0
-8.7648296 2.4063246 0.19890898 0
-8.391902 2.4012618 0.21174678 0
12.898163 2.2602205 0.43810409 0
13.042398 2.2535496 0.14630829 0
79.932312 2.1801574 0 0
-29.693827 2.6625099 0 0
-10.803584 2.5898139 0.30937478 0
-10.148028 2.5365083 0.23252431 0
-9.6733789 2.6128683 0.153868 0
-9.2894955 2.7673409 0.14382195 0
-8.7620268 2.7204285 0.3382349 0
-8.3752308 2.8358307 0.33805713 0
-7.8866744 2.9162805 0.29345122 0
-7.4057112 2.9567332 0.1976926 0
12.852932 2.5124269 0.45564783 0
21.714413 2.7535641 0.15250611 0
79.96524 2.6773834 0 0
-10.076613 3.2958186 0.27617377 0
-9.6989784 3.2042735 0.11344352 0
-9.3012352 3.1879873 0.085475296 0
-8.6506615 3.0999157 0.20751797 0
-8.2150917 3.2269063 0.37485901 0
-7.9417391 3.2739754 0.32779148 0
-7.3880568 3.0724502 0.19069868 0
-10.123703 3.8499253 0.12565733 0
-9.7821445 3.7245793 0.090647794 0
-9.3306246 3.8961401 0.17542908 0
-8.7613411 3.8663893 0.20897338 0
-8.1180229 3.8264008 0.17099614 0
-7.7966657 3.6332121 0.1125581 0
21.057539 3.946229 0 0
80.154221 3.7976625 0 0
-9.7357368 4.1550727 0 0
-8.5081282 4.0694666 0.49174863 0
-8.3464127 4.1512957 0.48609638 0
-7.8798618 4.2858791 0.240371 0
20.352077 4.4669647 0.18187152 0
20.907835 4.4239125 0 0
21.061649 4.1856532 0 0
80.167313 4.1765914 0 0
-9.842804 4.9523377 0.19148779 0
-8.167407 4.6652279 0.49042282 0
-7.9947066 4.5435176 0.47939736 0
20.302879 4.7231808 0.23102541 0
20.530994 4.8759098 0 0
80.242691 4.5597253 0 0
-10.117046 5.2863169 0.10077019 0
-9.7925005 5.2063355 0.1916108 0
20.29027 5.0155034 0.36398742 0
20.717213 5.1905375 0 0
-10.146439 5.6222711 0.20164511 0
16.614092 5.8444343 0 0
16.236855 6.0798049 0.15084115 0
80.618538 7.2974691 0 0
80.587242 7.549952 0 0
12.875212 8.4530821 0.10090109 0
13.054606 8.361968 0.26976764 0
19.841385 8.382596 0.37513366 0
-8.0109119 8.8312073 0.30999327 0
-7.915554 8.7252054 0.30732498 0
12.735217 8.7220697 0.11069342 0
19.667511 8.74088 0.37484673 0
-12.338581 9.473177 0.27068681 0
-11.08569 9.4354649 0.20247583 0
-10.945201 9.2391233 0.37288535 0
-9.6967735 9.3813744 0 0
-9.1188002 9.3007965 0.3847495 0
-8.6541405 9.239398 0.26407641 0
-8.336194 9.1022673 0.21500354 0
-7.8860121 9.4508295 0 0
19.705803 9.1714487 0.12551771 0
20.015982 9.4160023 0 0
-12.718784 9.6705675 0.27805173 0
-12.239277 9.696826 0.13626839 0
-11.782323 9.7835073 0 0
-11.145994 9.7268639 0.097000472 0
-10.890325 9.671731 0.083887905 0
-9.8166676 9.5794353 0 0
-9.2190161 9.5905418 0.11526267 0
-8.7880354 9.7753553 0.11478448 0
-7.7542071 9.746376 0.28059271 0
-7.2616382 9.8540163 0.2052999 0
19.853153 9.7186337 0 0
-11.548032 10.473015 0.27128023 0
-11.204909 10.184972 0.12156004 0
-10.879859 10.194187 0.065446526 0
-9.157114 10.441635 0 0
-8.7395687 10.189477 0.23339398 0
-7.9737129 10.260037 0.22597376 0
-7.2059073 10.192143 0.34197927 0
19.773275 10.063239 0 0
-11.516739 10.507418 0.27128023 0
-9.3284769 10.644955 0.24621856 0
-11.165205 11.241663 0 0
-7.5356264 11.333513 0.23672444 0
-7.2851229 11.17259 0.27197194 0
-6.9662657 11.061357 0.45481023 0
-11.358791 11.545225 0 0
-7.6804185 11.548628 0.2422723 0
-7.3335705 11.529312 0.23766688 0
-6.8931317 12.345513 0.49208292 0
20.376986 12.233392 0.32209384 0
20.706514 12.374494 0.14041042 0
81.167885 12.336542 0 0
-6.797111 12.700515 0.3338857 0
20.387653 12.655981 0.41802004 0
20.712597 12.820082 0 0
21.400133 12.525288 0 0
21.66078 12.586514 0 0
81.251221 12.741184 0 0
20.655951 13.04842 0 0
20.239891 16.429855 0.11337083 0
20.865019 16.396938 0.34716326 0
21.084206 16.156969 0.46282035 0
-9.2755623 16.790401 0 0
19.765778 16.811007 0.4520871 0
20.136839 16.694374 0.12957664 0
20.687571 16.605814 0.38529095 0
20.382502 17.010452 0.4625586 0
-9.0279169 17.535088 0.17176658 0
-8.9206495 17.680599 0.21625276 0
-8.8115053 18.078642 0.35021162 0
20.268795 19.447742 0.48947018 0
20.748756 19.380005 0.49474078 0
-9.6481085 19.925804 0 0
20.185234 19.606277 0.4903428 0
20.627775 19.558138 0.49533418 0
-10.083031 20.498468 0 0
-9.5574894 20.161695 0.13003206 0
-9.448534 20.254183 0.13033457 0
15.92393 20.418047 0 0
16.073605 20.310949 0.18076503 0
20.190086 20.36891 0.24979047 0
20.773956 20.26429 0 0
21.17767 20.277498 0 0
-11.201836 20.890278 0 0
-9.7377272 20.749292 0.39924124 0
-9.3061295 20.756792 0.099583432 0
15.83498 20.5613 0 0
19.943401 20.799646 0 0
20.027622 20.596077 0 0
20.622864 20.559137 0 0
-9.6448479 21.235537 0.40626875 0
-9.2268753 21.172085 0.05692476 0
-8.9290962 21.170292 0.13289426 0
19.882378 21.059307 0 0
-9.5371437 21.530851 0.41020137 0
-9.2461224 21.652298 0.41013154 0
-8.8795786 21.716389 0.25589591 0
-8.6466742 22.270065 0.41615844 0
-8.446888 22.165602 0.41320318 0
-9.0857048 22.662682 0 0
-8.5565577 22.789618 0.28151897 0
-8.4656229 23.020922 0 0
-12.458141 23.570251 0 0
-9.0492382 23.810492 0 0
-8.8318977 23.819559 0.22122669 0
-8.2623224 23.838036 0.072520562 0
-7.9379787 23.862471 0 0
-8.6851902 24.245401 0.44870138 0
-8.302803 24.252052 0.33592391 0
-7.8687468 24.090002 0.26477394 0
12.231105 24.303835 0.23707931 0
12.641515 24.216007 0.2038441 0
20.161922 24.28043 0 0
-8.1997271 24.508898 0.45027208 0
-7.7167277 24.777054 0.4521395 0
11.946988 24.760408 0.24077341 0
12.017774 24.586737 0.31828535 0
20.476618 24.502443 0 0
20.887091 24.763615 0 0
-43.210793 26.877943 0 0
-42.945423 26.963055 0 0
10.289165 26.736618 0 0
-47.378838 27.072495 0 0
-43.212242 27.394611 0 0
-43.197029 27.767822 0 0
-42.839375 27.812943 0 0
15.471889 27.99753 0 0
15.815638 27.993315 0 0
-43.083977 28.261414 0 0
-42.802032 28.365776 0 0
-8.7773838 28.127758 0 0
-8.4725285 28.069324 0 0
15.485723 28.231922 0 0
15.673973 28.049929 0 0
20.890446 28.467394 0 0
-42.853485 28.785654 0 0
-8.5809498 28.7551 0 0
-8.2663279 28.732368 0 0
-42.72245 29.475952 0 0
-7.6796422 29.261152 0 0
-43.230526 29.626579 0 0
-7.7377381 29.886724 0 0
-43.244053 30.036634 0 0
-7.7389207 30.262281 0 0
19.978373 30.370092 0 0
20.226051 30.438858 0 0
20.606354 30.494637 0 0
55.66378 30.291443 0 0
-44.220097 30.909807 0 0
-42.766045 30.802347 0 0
-7.7386303 30.662676 0 0
20.472538 30.502771 0 0
55.758629 30.672108 0 0
-44.225533 31.225525 0 0
-7.1480608 31.400784 0 0
55.843483 31.170952 0 0
-44.252262 31.557751 0 0
-43.225487 31.849693 0 0
-42.984047 31.880222 0 0
55.948696 31.685699 0 0
-42.603844 32.015068 0 0
-42.495907 32.131672 0 0
56.012402 32.07111 0 0
12.199987 32.915924 0 0
19.857061 34.8983 0 0
20.125704 34.859432 0 0
31.665871 34.80999 0 0
32.095249 34.839912 0 0
46.886673 34.904041 0 0
10.443048 35.326874 0 0
31.691053 35.280598 0 0
46.141766 35.131882 0 0
46.744293 35.014484 0 0
15.38238 35.598846 0 0
31.780663 35.704937 0 0
41.742004 35.923885 0 0
41.229805 36.044518 0 0
31.963314 36.708488 0 0
32.027374 37.126785 0 0
13.385427 40.166454 0 0
16.32773 40.882141 0 0
16.708359 40.737553 0 0
-7.2567201 41.57954 0 0
16.454092 41.768017 0 0
19.331812 42.357143 0 0
15.44183 43.386051 0 0
15.523362 43.208214 0 0
19.602957 43.310379 0 0
-7.0819435 45.026546 0 0
-6.9123793 45.287647 0 0
-6.8845692 46.076649 0 0
-6.8657346 46.960903 0 0
-6.735477 49.314289 0 0
-6.6787238 50.008129 0 0
-10.534308 51.840649 0 0
-8.7077494 51.720234 0 0
-8.4278021 51.997574 0 0
-6.6634436 51.754879 0 0
-10.793264 52.273487 0 0
-10.195101 52.271114 0 0
-8.6171675 52.128708 0 0
-6.3936901 52.214081 0 0
-9.7717104 53.157455 0 0
-6.2330794 53.006927 0 0
-9.6742544 53.573666 0 0
-6.1497793 55.210686 0 0
-6.0493031 55.905807 0 0
-5.7125669 55.989471 0 0
-5.8885412 56.063744 0 0
-5.3078361 58.375252 0 0
-4.8896585 58.78112 0 0
-5.1542931 59.694027 0 0
-4.6745987 59.595009 0 0
-4.2267718 59.816143 0 0
-3.8231819 60.349083 0 0
-3.6170313 61.5219 0 0
-3.4684923 62.339722 0 0
-3.2070732 62.990471 0 0
53.38155 65.084808 0 0
53.657066 65.003151 0 0
-3.0858316 66.580666 0 0
-2.9008572 67.409752 0 0
-2.7209024 67.929665 0 0
-2.5325792 68.621422 0 0
-2.334461 69.148743 0 0
-2.1358562 69.755447 0 0
-1.9475042 70.453224 0 0
-1.7404815 71.046829 0 0
-1.531783 71.735786 0 0
-1.3153967 72.216156 0 0
-1.1099592 72.85968 0 0
-0.87279457 73.174934 0 0
0.7431556 76.400528 0 0
0.98801172 76.769775 0 0
3.6584485 84.204704 0 0
3.9435184 84.940643 0 0
4.6734753 86.067238 0 0
-5.1281462 -57.05743 0.99911529 0
-4.9447255 -57.025448 0.99827766 0
-7.038022 -56.539101 0.99367023 0
-6.3457479 -56.709515 0.995206 0
-4.7478461 -56.829475 0.99457777 0
-7.1796851 -56.243099 0.98885334 0
-6.7497826 -56.3909 0.99049389 0
-6.298315 -56.322182 0.98839962 0
-5.7612381 -56.273197 0.98654962 0
8.9128265 -54.400391 0.96138334 0
9.1906281 -54.021511 0.95565891 0
9.3575354 -53.479378 0.94682789 0
-6.3888588 -46.08223 0.81122273 0
-6.5948629 -45.974476 0.80986148 0
7.4585848 -41.838043 0.74095941 0
7.7863097 -41.806503 0.74144804 0
34.295925 -41.170689 0.93447161 0
34.406303 -40.793762 0.93066704 0
34.506214 -40.523071 0.92818874 0
30.431519 -40.02562 0.87680894 0
30.797539 -40.029129 0.88074154 0
34.558525 -40.199272 0.9244889 0
15.911063 -39.602848 0.74413568 0
16.267649 -39.589531 0.74626493 0
16.70402 -39.598465 0.74933654 0
17.147589 -39.616226 0.75266409 0
24.73028 -39.734859 0.8160978 0
25.270731 -39.763466 0.82154298 0
25.786255 -39.757244 0.82631332 0
26.206224 -39.725586 0.82986188 0
26.747721 -39.863983 0.83711052 0
27.241539 -39.795025 0.84095001 0
27.783026 -39.786915 0.84620905 0
28.248165 -39.78397 0.85083973 0
28.76149 -39.854031 0.8570528 0
29.175297 -39.77327 0.86015928 0
29.723288 -39.867794 0.8671751 0
30.117662 -39.872059 0.87136376 0
34.627426 -39.777428 0.91970694 0
40.706116 -39.564201 0.99000514 0
41.204208 -39.673523 0.99757957 0
12.080719 -39.466282 0.71959758 0
14.942539 -39.091225 0.7296502 0
15.094415 -39.140015 0.73139548 0
17.294777 -39.114662 0.74567151 0
34.706314 -39.373352 0.91530889 0
38.45499 -39.399876 0.96016157 0
38.659786 -39.238167 0.96065032 0
39.183022 -39.285442 0.96766615 0
39.75692 -39.363892 0.97572911 0
40.170315 -39.400326 0.98131382 0
8.0191879 -38.691845 0.6888814 0
10.14119 -38.879131 0.70050472 0
11.951345 -38.589676 0.70430928 0
12.19596 -38.965904 0.7118488 0
15.120979 -38.846645 0.72678804 0
34.81065 -38.640316 0.90696663 0
35.783943 -38.61499 0.91810125 0
36.327263 -38.718082 0.92588508 0
36.803848 -38.774242 0.93230754 0
8.1720209 -38.230408 0.6815514 0
12.060903 -38.115349 0.69697934 0
14.27917 -38.072296 0.70891672 0
17.208549 -38.437386 0.7342577 0
19.128641 -38.235695 0.74542719 0
34.845921 -38.435932 0.9047327 0
35.192795 -38.452591 0.90902603 0
8.3475628 -37.623306 0.67184782 0
8.6777601 -37.724869 0.67484963 0
10.722437 -37.717636 0.68361074 0
12.256375 -37.649063 0.69027758 0
12.764622 -37.669716 0.69341898 0
13.974401 -37.61829 0.69963211 0
14.889286 -37.898022 0.70989406 0
17.237701 -37.713913 0.72296596 0
17.582153 -37.690586 0.72511262 0
18.833105 -37.94059 0.73851609 0
8.8364868 -37.217873 0.66686815 0
9.3010139 -37.305511 0.6702655 0
9.7582684 -37.159637 0.66978848 0
10.29557 -37.313751 0.6748147 0
10.869556 -37.352806 0.67820054 0
12.072704 -37.334751 0.68406451 0
12.610715 -37.215549 0.68504184 0
13.16397 -37.173344 0.6875084 0
13.697573 -37.411285 0.6945709 0
14.097037 -37.247688 0.69432652 0
17.73975 -37.238415 0.71915549 0
18.236477 -37.162376 0.72172678 0
8.6632729 -36.61961 0.65600109 0
10.176231 -36.892567 0.66717058 0
10.943306 -36.968582 0.67212707 0
12.808917 -36.864292 0.68036461 0
13.321879 -36.903217 0.68399465 0
18.166069 -35.746983 0.69907361 0
18.260782 -35.256485 0.69221473 0
20.20454 -35.167053 0.70710176 0
41.148335 -35.209023 0.94445437 0
18.457451 -34.83197 0.68724084 0
18.787863 -34.801052 0.68948644 0
40.940205 -34.812111 0.93719423 0
19.136406 -34.166653 0.68271488 0
19.790535 -34.085327 0.68713617 0
20.436127 -34.201691 0.69460577 0
20.797518 -34.323269 0.6996786 0
21.127375 -34.409542 0.70396024 0
40.804455 -34.378105 0.93049246 0
41.212772 -34.176304 0.93370372 0
41.627026 -34.076317 0.93817157 0
19.317804 -33.992512 0.68162119 0
19.924076 -33.947109 0.68622863 0
20.085867 -33.856339 0.68629843 0
15.056219 -31.545996 0.60929841 0
15.151973 -31.49568 0.60922861 0
-5.9228783 -30.813251 0.54685366 0
16.887039 -30.703148 0.61079931 0
-5.9353676 -30.124319 0.5350908 0
-5.4077115 -29.538612 0.52332783 0
-7.1712112 -29.154463 0.52322316 0
-6.7458477 -29.176126 0.52187353 0
-6.2729006 -29.299286 0.52217597 0
-5.8841009 -29.141472 0.51809216 0
-5.4866714 -29.273876 0.51903456 0
-4.9034901 -29.067535 0.51370573 0
-6.0678482 -28.905634 0.51470637 0
-4.581831 -28.794693 0.50809771 0
-4.4243922 -28.963707 0.51058763 0
-7.3215485 -28.24752 0.50851655 0
-7.1961961 -27.662193 0.82930726 0
-7.658886 -27.292595 0.98821414 0
-7.4853592 -27.485767 0.99310005 0
-6.8143682 -27.153063 0.9759295 0
-7.2770147 -26.730314 0.96573883 0
-6.6762714 -20.671551 0.75690025 0
-6.7314653 -20.200901 0.74189353 0
-6.1674972 -20.393999 0.74235415 0
-5.9835377 -20.466434 0.74294049 0
-6.7151098 -19.847992 0.73002774 0
-6.7403255 -19.41489 0.71599805 0
-6.6090651 -18.39286 0.68081939 0
-7.9717793 -17.528858 0.67076832 0
52.262318 -17.54192 0.96141821 0
-8.2053604 -17.166039 0.91853726 0
-7.7925315 -17.246294 0.87909824 0
-7.3782248 -17.321205 0.98417759 0
52.321274 -17.288731 0.96099931 0
-8.7575111 -16.712027 0.98628855 0
45.411713 -15.869786 0.83883244 0
45.76358 -15.671794 0.84350967 0
-6.9419799 -14.004498 0.54415298 0
-7.1799226 -13.799843 0.60962498 0
-6.9879875 -13.977195 0.68015742 0
-8.9023361 -13.012807 0.82376796 0
-8.2049932 -13.164351 0.74358827 0
-7.6999259 -13.302803 0.66867739 0
-7.4368458 -13.396158 0.66618264 0
-8.7695284 -12.825887 0.77833986 0
-8.328227 -12.870482 0.68607795 0
-7.8765016 -12.794305 0.65380067 0
-7.4032164 -12.681242 0.76703578 0
-8.6403732 -11.615008 0.75614989 0
-10.167286 -11.273241 0.5284481 0
-9.5280046 -11.078456 0.76326758 0
-9.2432518 -11.262959 0.76117414 0
-8.7820578 -11.210353 0.74379861 0
-8.3009129 -11.178113 0.72720063 0
-9.5069561 -10.808219 0.75185835 0
-9.2904816 -10.870184 0.74689692 0
-8.6346054 -10.701047 0.8861233 0
-8.2654257 -10.689465 0.70562834 0
36.129078 -10.537493 0.65607083 0
36.182755 -10.248612 0.65558219 0
19.884413 -9.5865479 0.76918495 0
36.267185 -9.7856836 0.65484917 0
19.941816 -9.3461809 0.76739806 0
36.277832 -9.4895563 0.65369737 0
19.949551 -8.7888937 0.75958753 0
20.062105 -8.5774069 0.76025057 0
36.478542 -8.6970892 0.65374386 0
20.338486 -8.3257771 0.76577467 0
36.566944 -8.2392092 0.65344602 0
36.661411 -7.7238808 0.65313888 0
-7.6075416 -7.037591 0.76557803 0
-7.16646 -7.0418339 0.75890762 0
36.729862 -7.3822999 0.65310395 0
-7.5742912 -6.8073244 0.78017515 0
-7.2791233 -6.687469 0.67478633 0
-6.8796062 -6.7397556 0.64631402 0
-6.2640653 -6.6262698 0.82814318 0
-8.0260563 -6.3369627 0.53340811 0
-7.775588 -6.2416167 0.72872192 0
-7.2636895 -6.2093048 0.73582429 0
-6.650691 -6.3020091 0.85927302 0
-9.4363909 -5.5244126 0.952438 0
-8.0894728 -5.8830347 0.52168483 0
-7.5970097 -5.6457314 0.65850115 0
-7.2279835 -5.675446 0.69237489 0
-6.8102999 -5.7928863 0.81013459 0
-6.4027128 -5.9670238 0.91483307 0
13.934621 -5.5078096 0.7827366 0
14.220744 -5.7247539 0.80087972 0
-9.7472868 -5.2277761 0.96347767 0
-9.0710659 -5.2728591 0.91374081 0
-8.2393637 -5.3487306 0.59640217 0
-7.8635445 -5.339325 0.76574063 0
-7.2663856 -5.2369857 0.78037435 0
-6.7387657 -5.3527541 0.758654 0
13.395402 -5.0069828 0.74693877 0
13.792404 -5.2240472 0.61292583 0
-9.1457005 -4.839057 0.72016585 0
-8.7328148 -4.6648974 0.63237935 0
-8.1361179 -4.7933383 0.7830506 0
-7.7383499 -4.8058257 0.77839184 0
-7.3019624 -4.6478543 0.65147084 0
-6.6255479 -4.8517275 0.78637505 0
-6.1234622 -4.6365619 0.9372564 0
-5.999526 -4.7031641 0.93010682 0
13.244229 -4.7203689 0.84099215 0
13.762291 -4.7985883 0.50729907 0
14.041284 -4.830512 0.51686156 0
-31.117477 -4.0609474 0.54692352 0
-8.6963902 -4.2897482 0.8441906 0
-8.2868347 -4.2703071 0.70265001 0
-7.7773294 -4.1760712 0.82920265 0
-7.1477518 -4.275754 0.75706345 0
-6.5532532 -4.3441329 0.82106012 0
-6.3407216 -4.3847594 0.85011411 0
13.143059 -4.2748103 0.8739121 0
13.686803 -4.1782665 0.74692458 0
14.286276 -4.346076 0.59131438 0
-32.319859 -3.6667721 0.56692398 0
-31.939125 -3.7730603 0.56053638 0
-31.164633 -3.880754 0.54734236 0
-9.8045845 -3.7667682 0.62228757 0
-9.1346703 -3.8438258 0.86284184 0
-8.2545986 -3.8104284 0.83669817 0
-7.719584 -3.705169 0.76184809 0
-7.2033792 -3.7024801 0.8372404 0
-6.8631997 -3.5731728 0.91016662 0
13.363056 -3.7662451 0.94523025 0
13.585408 -3.8464735 0.77883989 0
-9.0978889 -3.1107767 0.50137848 0
-7.6655569 -3.2462773 0.70713532 0
-7.2289419 -3.3001089 0.77553284 0
-6.792532 -3.2164564 0.56580025 0
30.843706 -3.0222754 0.54011703 0
31.248772 -3.2111063 0.54748201 0
-8.5309486 -2.7623029 0.93741131 0
-8.1435633 -2.696569 0.74659258 0
-7.7079034 -2.625107 0.76693767 0
-7.2247353 -2.7189527 0.7965104 0
-6.9087815 -2.9570379 0.78479975 0
11.073687 -2.8027997 0.7956143 0
30.868513 -2.9317596 0.54039627 0
-9.3275614 -2.1709325 0.66631389 0
-8.6262608 -2.0504661 0.61664724 0
-8.2573519 -2.272917 0.59555757 0
-7.6947622 -2.205498 0.80430597 0
-7.2836847 -2.1882358 0.72383642 0
-9.8189592 -1.8282146 0.52091724 0
-9.3544703 -1.7604678 0.74374938 0
-8.9183006 -1.7394947 0.94995469 0
-8.0536528 -1.7727368 0.57339823 0
-7.7048988 -1.7273967 0.81343573 0
-7.1895175 -1.7900375 0.6954174 0
16.948599 -1.5053465 0.74108243 0
-10.629509 -1.1371009 0.74416208 0
-10.252561 -1.09653 0.71765459 0
-9.9702101 -1.070254 0.69796973 0
-9.1653881 -1.2202823 0.83788025 0
-8.948348 -1.3482059 0.69724089 0
-7.5365348 -1.4214152 0.60741699 0
16.957207 -1.4526699 0.74122202 0
20.830784 -1.3644209 0.72730553 0
21.151167 -1.4851837 0.73875254 0
-10.065742 -0.86684954 0.84410894 0
-9.6727209 -0.64800245 0.72007269 0
-9.2856827 -0.87487978 0.93541855 0
10.793095 -0.573304 0.5639199 0
-30.766491 -0.24418679 0.53620774 0
-29.741425 -0.095816173 0.51830161 0
-9.928484 -0.44659528 0.51833534 0
10.820535 -0.21893182 0.73746073 0
11.031494 -0.20785807 0.57580018 0
-29.707588 0.04382496 0.51770818 0
-7.5579324 0.31913763 0.72072601 0
11.06102 0.015078712 0.57716089 0
-30.123493 0.69714844 0.52510804 0
-29.901264 0.78591377 0.52126849 0
-9.7505436 0.76381695 0.63197553 0
-10.57271 1.4971539 0.743325 0
-10.326057 1.2162404 0.7424826 0
-9.9241333 1.292371 0.69770074 0
-11.30121 1.6174593 0.69508994 0
-10.648088 1.6554331 0.75101328 0
-10.263153 1.7266196 0.78304917 0
-9.8198061 1.8120054 0.60833293 0
-9.385026 1.7607806 0.83153093 0
12.931944 1.9237981 0.91088003 0
13.148569 1.7682539 0.92435694 0
-30.362938 2.2672877 0.5306229 0
-10.759816 2.3624487 0.66919059 0
-10.276341 2.218646 0.77075297 0
-9.919179 2.1014535 0.76482457 0
-9.1692429 2.4791968 0.82681751 0
-8.8731041 2.380096 0.6390391 0
12.95247 2.2860839 0.81412029 0
13.026067 2.2206395 0.84392565 0
-10.718349 2.6216073 0.66091198 0
-10.336935 2.664494 0.79438573 0
-9.7653732 2.8129234 0.72946888 0
-9.2825699 2.7608113 0.74605083 0
-8.7126064 2.7986119 0.85775304 0
-8.413765 2.82669 0.6173448 0
-7.7918425 2.8650434 0.76777512 0
-7.4035716 2.9571795 0.76322269 0
21.695366 2.7488239 0.76199555 0
-9.7791471 3.2272768 0.55955303 0
-9.0755081 3.1165886 0.8346175 0
-8.8832731 3.0430706 0.76307172 0
-8.1377087 3.2215049 0.75464386 0
-9.5496168 3.9698853 0.81022477 0
-9.2141218 3.8796539 0.65923738 0
-8.7594872 3.7202585 0.86978704 0
-8.1826506 3.743948 0.78898335 0
-7.8880301 3.6817398 0.77289277 0
-10.160745 4.2592769 0.76704222 0
-9.6098747 4.2597942 0.72891819 0
-9.3936014 4.2309189 0.62626553 0
-8.7555609 4.3924699 0.81078178 0
-8.1719275 4.299572 0.8920157 0
-7.7377701 4.0799675 0.83717358 0
-9.6569099 4.7501717 0.74918455 0
-8.7565842 4.7230172 0.60587466 0
-8.359333 4.6837664 0.76383668 0
-9.603384 5.0822959 0.56690305 0
-9.1933508 5.3082032 0.92454809 0
20.199251 5.1847939 0.72656101 0
-9.522049 5.5334311 0.5746488 0
-9.4979382 5.5589161 0.57423013 0
16.68191 5.9057775 0.80170977 0
16.147057 6.1528664 0.60173714 0
-9.7528276 8.2388592 0.889395 0
-9.1127243 8.4827614 0.86721247 0
-8.8360777 8.4849701 0.85326123 0
12.761749 8.4192095 0.6660946 0
13.032781 8.2844286 0.80681109 0
-10.490655 8.5628119 0.70716345 0
-9.1981564 8.6993179 0.7925843 0
-8.9088392 8.5012875 0.85772562 0
-8.2221775 8.8440056 0.63033426 0
