# .PCD v0.7 - Point Cloud Data file format
VERSION 0.7
FIELDS x y z intensity
SIZE 4 4 4 4
TYPE F F F F
COUNT 1 1 1 1
WIDTH 1477
HEIGHT 1
VIEWPOINT 0 0 0 1 0 0 0
POINTS 1477
DATA ascii
35.153915 17.37269 2.0525117 0
35.677811 17.020901 2.0691543 0
34.716591 17.693737 2.0395846 0
35.266827 17.634718 2.0639207 0
34.494568 18.048002 2.0377529 0
34.665726 18.231302 2.050174 0
43.65152 18.312695 2.4783168 0
34.728012 18.720922 2.0651071 0
43.873394 18.644808 2.4957972 0
-3.5229721 19.217529 2.3930264 0
-3.4438889 19.236814 2.2793589 0
34.748806 19.243422 2.0792029 0
35.016895 19.295715 2.0928104 0
42.857693 19.311684 2.461046 0
43.626976 19.174664 2.4949598 0
-3.4029338 19.568333 2.1703916 0
34.934193 19.820101 2.1024401 0
35.080612 19.764021 2.1076736 0
43.245422 19.809885 2.4903541 0
59.607399 20.375561 2.1981099 0
67.801872 20.291059 2.4697676 0
59.751793 20.839245 2.2081609 0
67.881233 20.768713 2.4772594 0
59.375763 21.223452 2.2002504 0
67.345016 21.286638 2.4647422 0
67.529266 21.113762 2.4690697 0
59.103874 21.537737 2.1950386 0
67.392265 21.989233 2.4738157 0
67.677536 21.737324 2.4805865 0
66.986778 22.312677 2.4639044 0
67.034309 22.105745 2.4632065 0
-20.204197 22.588871 2.1158533 0
-3.8825994 24.324284 2.1508293 0
21.602304 28.426165 2.4932361 0
25.959089 28.06218 2.0009081 0
26.467968 28.440081 2.0335658 0
26.859898 28.499899 2.0498948 0
25.072279 28.851963 2.000699 0
26.729258 28.540421 2.0467544 0
16.425756 29.20862 2.3399112 0
16.505629 29.136044 2.338237 0
25.058357 29.017288 2.0067699 0
16.331184 30.464533 2.4137135 0
16.199991 30.554869 2.414969 0
48.801395 30.97374 2.0167723 0
49.146538 30.868736 2.0250084 0
49.588306 30.833311 2.0374327 0
-4.1303196 31.390343 2.2105827 0
48.589169 31.150211 2.0138407 0
55.856415 31.694551 2.2410131 0
55.835358 32.251896 2.2500405 0
21.843073 33.787029 2.1059988 0
22.243862 33.602253 2.1094007 0
22.723373 33.641045 2.1250491 0
26.698565 33.946182 2.2608435 0
27.236265 33.974884 2.2795448 0
26.497765 34.352551 2.2711711 0
26.519793 34.158726 2.2638443 0
28.79192 34.245583 2.3422432 0
29.224792 34.235661 2.3565137 0
21.823242 35.92075 2.2002037 0
22.285021 35.921589 2.212904 0
22.774775 35.96032 2.2282555 0
21.283173 36.291203 2.2023807 0
21.599669 36.055782 2.2002037 0
24.790018 36.112698 2.2930825 0
25.288599 36.144581 2.3093417 0
25.743622 36.191135 2.3250771 0
26.188354 36.220272 2.3399057 0
26.732702 36.256397 2.358258 0
27.293188 36.300571 2.3776572 0
29.713812 36.476898 2.4631393 0
20.365515 36.931225 2.2077401 0
20.703272 36.68119 2.2049487 0
30.220182 36.519291 2.4817011 0
59.998482 36.785084 2.4559474 0
60.425922 36.79858 2.46893 0
61.235039 36.897804 2.4948952 0
19.689032 37.400028 2.2125549 0
20.202076 37.034592 2.2083681 0
18.930996 37.945843 2.219882 0
19.260624 37.713661 2.2168255 0
46.986629 37.970879 2.1079297 0
16.271732 38.086254 2.1680343 0
16.668158 38.024956 2.1733377 0
18.658211 38.130463 2.2222371 0
47.32703 38.000736 2.117841 0
47.642044 38.010189 2.1266358 0
48.242764 38.13105 2.1456909 0
48.748226 38.157787 2.1601391 0
16.181141 38.702133 2.1959119 0
18.506416 38.724342 2.2467823 0
18.491375 39.323837 2.2748346 0
18.473598 39.77092 2.2956643 0
18.467735 40.248737 2.3182735 0
18.459698 40.722221 2.3406732 0
-4.8031569 41.359852 2.1796355 0
-4.3618269 41.471428 2.1828978 0
18.453512 41.224388 2.3645384 0
-5.7072091 41.959732 2.2167418 0
-5.1455908 41.513115 2.1897364 0
-4.1082163 41.556324 2.1859684 0
-3.9966977 41.751789 2.1955981 0
-5.926425 42.570679 2.2500274 0
16.257893 43.242245 2.4186015 0
16.621361 43.19725 2.4231548 0
16.09622 43.834229 2.4447172 0
17.294962 43.71463 2.4612553 0
17.798883 43.798035 2.4751418 0
18.115337 43.805176 2.481771 0
16.064741 44.190205 2.461674 0
-31.630871 48.907352 2.0322676 0
-31.430868 48.931633 2.0291963 0
-20.260426 54.383308 2.0249386 0
13.126594 59.41832 2.1232853 0
-5.5272355 59.780598 2.0948074 0
12.377463 59.991272 2.1373847 0
12.717473 59.744175 2.131382 0
13.462964 59.605404 2.1322196 0
13.745779 59.979725 2.1471565 0
-5.7418733 60.137856 2.1079297 0
-5.4000845 60.478546 2.1186786 0
12.119032 60.143852 2.1408048 0
15.270943 61.765511 2.2201664 0
15.038977 62.077526 2.2288215 0
12.284002 67.434601 2.3919418 0
12.611161 67.40477 2.3929887 0
-5.8874569 68.377342 2.394943 0
-5.6320267 69.128769 2.4203498 0
-5.2027454 69.178429 2.4209082 0
-4.6942611 69.457764 2.4293771 0
10.198938 120.92017 2.117326 0
10.75053 120.87252 2.117326 0
3.9369826 -51.130478 2.6850438 0
4.0931525 -51.062111 2.6821129 0
3.348927 -50.643883 2.6574106 0
3.68364 -50.913002 2.6726925 0
2.8497896 -50.194321 2.6322894 0
3.0950022 -50.411976 2.6444311 0
2.3598166 -49.769852 2.6087379 0
2.6051531 -49.987671 2.6207755 0
0.86480069 -48.394054 2.534107 0
1.0875595 -48.157761 2.521965 0
1.3733443 -47.824776 2.5049036 0
-4.8066049 -42.545048 2.9905996 0
-6.2646651 -42.209438 2.9805546 0
-5.992311 -42.466839 2.9956219 0
-4.6541595 -42.389385 2.9786015 0
-4.2717876 -42.10043 2.9557211 0
-7.0252934 -41.555687 2.9437232 0
-6.7357788 -41.798359 2.9571862 0
-4.3424525 -41.961151 2.9465137 0
33.823597 -41.828678 2.8166513 0
-7.1401949 -41.442974 2.9373055 0
33.970055 -41.484844 2.8075101 0
34.069725 -41.340923 2.8049977 0
-8.1598177 -40.558552 2.8895922 0
-8.6672192 -40.142914 2.8683863 0
-8.3861275 -40.370953 2.8799193 0
-7.9116645 -40.274231 2.8667121 0
-8.8262339 -39.993896 2.8605735 0
-7.657228 -39.97002 2.8424366 0
-7.2965846 -39.643635 2.8153713 0
-6.956706 -39.63612 2.8106279 0
-7.1864896 -39.497768 2.8039312 0
39.532593 -33.23893 2.7043033 0
39.492764 -32.994179 2.6944642 0
28.653673 -28.567329 2.825974 0
25.25742 -28.07464 2.6373527 0
28.834194 -28.387955 2.8261137 0
24.694935 -27.800566 2.596894 0
25.030853 -27.999123 2.6228435 0
25.086147 -27.456966 2.5973125 0
24.87048 -26.715208 2.5489714 0
24.964245 -26.401838 2.5374615 0
25.162773 -26.361774 2.5449953 0
25.734941 -26.302025 2.5698283 0
31.290462 -25.722582 2.8291132 0
31.785166 -25.551208 2.8483894 0
31.725273 -25.183134 2.8290436 0
31.386402 -24.756124 2.7919331 0
21.812756 -21.768435 2.6918921 0
21.834818 -21.386023 2.6697545 0
22.022953 -21.238441 2.6725438 0
21.895081 -20.853418 2.6411676 0
22.325613 -20.739719 2.6618061 0
26.935585 -20.862511 2.9765427 0
22.339108 -20.053474 2.6221676 0
23.164162 -20.085041 2.6781218 0
26.444418 -20.220318 2.9082129 0
26.974472 -20.425169 2.9559741 0
27.112539 -20.201447 2.9538825 0
33.468872 -20.262733 2.7325006 0
36.633232 -20.05229 2.9169369 0
22.38203 -19.84074 2.6125805 0
22.703354 -19.733864 2.6275713 0
23.304611 -19.81703 2.672195 0
32.869938 -19.687046 2.6758585 0
33.008713 -19.563353 2.6797647 0
36.594383 -19.881832 2.9088449 0
32.739914 -19.265194 2.6529779 0
-1.6268053 -17.27029 2.7398558 0
-1.4112259 -17.275141 2.7376032 0
-1.7392411 -16.92922 2.9923055 0
-1.4284697 -16.837618 2.668772 0
0.25268948 -16.618439 2.9221516 0
0.91688979 -16.768764 2.9527135 0
1.0800225 -16.515142 2.6137071 0
-1.556939 -16.410177 2.8980722 0
-1.2018392 -16.203304 2.8037879 0
-0.80862552 -16.099571 2.744993 0
-0.22305547 -16.199738 2.7959547 0
0.33671272 -16.212921 2.7790713 0
0.71812701 -16.368475 2.7151582 0
1.0002837 -16.48852 2.6087012 0
17.969757 -16.396133 2.9809241 0
18.0527 -16.316566 2.981899 0
-0.65042049 -15.917491 2.5633218 0
-0.41600385 -15.905986 2.7971249 0
0.19978736 -15.939522 2.5526996 0
24.343403 -13.530581 2.9221976 0
18.314184 -13.247242 2.7694807 0
18.789339 -13.292149 2.8200564 0
24.381351 -13.453844 2.9217796 0
18.664801 -12.823509 2.7746401 0
19.092003 -12.667439 2.8073821 0
18.972071 -12.482088 2.7825208 0
19.100031 -12.312142 2.7843082 0
23.134899 -12.160931 2.7419906 0
23.712189 -11.594345 2.7691679 0
-11.712154 -11.295898 2.5695927 0
-4.700851 -11.252237 2.5818474 0
23.438328 -11.375337 2.7332101 0
-5.7178893 -10.65758 2.9660656 0
-5.2661819 -10.599207 2.8117115 0
-4.8013668 -10.840903 2.5814216 0
-5.6667318 -10.36133 2.6844842 0
-5.4134798 -10.366936 2.6889749 0
-1.1577578 -10.147492 2.5535519 0
-0.98215061 -10.30989 2.570178 0
-1.654745 -9.9667892 2.5443285 0
-1.1858594 -9.8849993 2.5070415 0
-11.156986 -9.0426321 2.5238025 0
20.230183 -8.2096596 2.6747885 0
-9.2080717 -7.7418451 2.5469184 0
-8.7896252 -7.6252542 2.9001698 0
15.785576 -7.9101739 2.7889135 0
20.061611 -7.6372795 2.6298184 0
-10.377801 -7.0760217 2.6596062 0
-9.5330915 -7.2149768 2.9688654 0
-9.2748041 -7.2716942 2.8685882 0
-8.8759594 -7.3339486 2.8057466 0
19.967905 -7.1359406 2.7585392 0
20.025278 -7.3474045 2.8397477 0
-9.8892527 -6.6363039 2.7519445 0
-8.8372831 -6.6730242 2.5455461 0
19.873528 -6.7505374 2.742856 0
-14.58176 -6.2684159 2.7901788 0
-9.7330818 -6.2163353 2.8031814 0
-9.4875422 -6.1288548 2.8458927 0
-8.9075546 -6.3258266 2.5112536 0
15.121567 -6.0218124 2.6673403 0
19.750902 -6.2483897 2.7212837 0
-10.191732 -5.7989645 2.6090021 0
-9.8395176 -5.9114923 2.7853363 0
15.159256 -5.9352922 2.7164226 0
19.638802 -5.7846789 2.738553 0
-10.193468 -5.2619634 2.8764632 0
-9.7387285 -5.3361526 2.7978125 0
19.479456 -5.11552 2.8237295 0
19.538725 -5.3592272 2.8406622 0
-10.189558 -4.9457526 2.6038084 0
-9.8244362 -4.9155273 2.6589174 0
19.384882 -4.7463732 2.7981446 0
19.388714 -4.3356867 2.7854662 0
19.620581 -4.1005988 2.8103223 0
19.869925 -3.7997429 2.8364275 0
20.07049 -3.538615 2.7368717 0
18.610266 -3.3870721 2.9883988 0
20.275518 -3.2448797 2.6860554 0
20.378643 -2.7697709 2.8836668 0
20.697573 -2.7402201 2.557672 0
20.370266 -2.2592704 2.8737154 0
20.937338 -2.4092007 2.5818427 0
21.115833 -2.1645436 2.6003995 0
-15.100307 -1.830734 2.6736262 0
20.368908 -1.7468741 2.8664787 0
21.36614 -1.8239537 2.6270969 0
21.552158 -1.5826426 2.6474895 0
20.31708 -1.2345562 2.8539534 0
21.790602 -1.2605927 2.6741791 0
-14.549745 -0.84117275 2.5613108 0
20.430861 -0.89001507 2.867337 0
20.578184 -0.65129644 2.8867841 0
22.150745 -0.7638163 2.7155278 0
20.827385 -0.30464208 2.9206867 0
21.023924 -0.045973361 2.9479647 0
22.424547 -0.3896791 2.7479098 0
22.629137 -0.11286023 2.7726493 0
21.236862 0.24978021 2.9781454 0
22.873999 0.27815402 2.8029253 0
22.99696 0.55882823 2.8185942 0
23.491032 0.89120668 2.8805037 0
23.522293 0.71077377 2.8835909 0
23.485018 1.0377169 2.8805037 0
15.984375 2.4263115 2.8422735 0
16.079451 2.3126361 2.7103269 0
-10.281787 3.6224518 2.7462978 0
24.019821 4.452527 2.9935987 0
24.819601 4.2959199 2.64241 0
23.429718 4.8607841 2.9321766 0
23.651331 4.6666217 2.8120718 0
24.142143 4.8091178 2.5822713 0
24.605867 4.6123686 2.626173 0
74.38858 4.7588739 2.6013389 0
23.407309 5.2492347 2.9395697 0
23.885109 5.323432 2.5670099 0
24.222963 5.2416115 2.5998318 0
32.78764 5.2993484 2.9015889 0
23.439404 5.6395788 2.9542348 0
23.791735 5.7662139 2.5679953 0
24.449005 5.5287628 2.629518 0
32.374237 5.9062247 2.8749194 0
32.696911 5.7042751 2.8996134 0
40.678658 5.626462 2.8682466 0
24.267029 6.2395906 2.6284728 0
24.621143 6.4509006 2.6700749 0
32.383465 6.0647449 2.878231 0
39.979187 6.2284713 2.8259742 0
40.061672 6.1124573 2.8304386 0
24.678171 6.6286378 2.6806672 0
49.373901 6.7400217 2.6090522 0
49.937119 6.5820026 2.6372089 0
56.493393 6.5005322 2.9777064 0
56.244316 7.0972519 2.9684954 0
-5.3054924 8.8351564 2.5671804 0
-4.5173817 9.2058153 2.5825961 0
-4.123971 9.125453 2.5217597 0
-4.8513517 9.7328176 2.7395928 0
-3.8349268 9.531271 2.587502 0
-3.3297076 9.7123756 2.5479214 0
-38.332764 10.828773 2.7820277 0
-7.522831 10.563311 2.9828508 0
-7.3092747 10.665627 2.7381527 0
-38.362026 11.096609 2.7891431 0
-7.3517962 11.45924 2.7913141 0
-7.2105303 11.617243 2.6484289 0
-38.24176 12.36162 2.8070006 0
-38.301666 12.64085 2.8170455 0
16.278982 13.950543 2.7523034 0
16.128651 14.125517 2.7105019 0
17.265518 14.24319 2.7423038 0
24.234037 14.281754 2.9514656 0
-5.1533732 14.860496 2.7649419 0
-4.8033328 14.723862 2.9144123 0
-4.2808371 14.871138 2.7895207 0
-3.9429908 14.862 2.9794827 0
15.245595 14.814041 2.7294884 0
15.97436 14.928714 2.678688 0
16.24457 14.8102 2.6932309 0
22.685492 14.975524 2.8519547 0
23.297028 14.816215 2.8968322 0
23.504688 14.596169 2.9029646 0
24.294149 14.672877 2.977946 0
-5.1967344 15.272304 2.5475352 0
-4.8523812 15.197412 2.7324653 0
-4.1095176 15.078931 2.7473457 0
-3.7836585 15.337553 2.7486279 0
15.210234 15.245351 2.6383252 0
22.692446 15.180522 2.8644979 0
23.041733 15.056257 2.8879123 0
-5.0844846 15.737604 2.6118298 0
-4.813374 15.754395 2.6016095 0
-4.4819484 15.591102 2.5617707 0
-3.59496 15.750984 2.6585491 0
-3.408232 15.944205 2.5747547 0
14.291039 15.725236 2.6031289 0
14.767748 15.947332 2.6628451 0
15.270734 15.789165 2.6911674 0
22.425795 15.710971 2.8728602 0
22.771404 15.640823 2.8985324 0
-4.9059048 16.120678 2.6612632 0
-3.5411494 16.10779 2.8995771 0
-3.2932818 16.196644 2.77198 0
14.897678 16.038548 2.6818569 0
15.157413 16.01543 2.7015996 0
22.731049 16.293221 2.9344623 0
-3.2359092 16.555378 2.9659109 0
22.263351 16.858299 2.9301422 0
22.533806 16.576725 2.9351592 0
34.949074 16.726728 2.7059932 0
35.078259 16.992012 2.7221766 0
35.686752 16.805765 2.7549622 0
36.416176 16.946491 2.8053262 0
36.835064 16.863861 2.8295085 0
22.074512 17.096041 2.9295146 0
22.785149 17.032587 2.9849148 0
23.444557 17.091976 2.5341401 0
35.045097 17.173845 2.7256644 0
34.380623 17.644257 2.6988778 0
34.725883 17.621796 2.7196655 0
35.285664 17.630697 2.7549155 0
22.866217 18.000381 2.54181 0
23.226067 18.208498 2.5778346 0
34.88298 18.450336 2.7560782 0
35.066933 18.271641 2.7616587 0
44.235046 18.235859 2.5050082 0
44.690578 18.177687 2.5259426 0
52.217682 18.380428 2.8986793 0
23.259653 18.543316 2.5982871 0
34.659534 18.675253 2.7497072 0
43.926643 18.987007 2.5054269 0
44.145061 18.924122 2.5146379 0
51.630081 18.715441 2.8755989 0
-3.4115343 19.147823 2.7266793 0
34.675488 19.273703 2.770797 0
35.074242 19.318319 2.7966764 0
43.854294 19.277374 2.5080438 0
50.75386 19.288898 2.8429937 0
51.230377 19.197317 2.864661 0
51.589314 19.14938 2.8814085 0
34.626614 19.776258 2.7850504 0
44.356171 19.82634 2.5437369 0
50.799839 19.753155 2.8539844 0
51.070469 19.862501 2.8692665 0
50.474926 20.346584 2.8495882 0
50.814262 20.213577 2.8635097 0
68.992332 20.411203 2.5108094 0
69.270439 20.259047 2.5186269 0
-20.421116 21.930136 2.6174614 0
-19.752064 21.608982 2.5571494 0
-20.111746 22.423389 2.6310577 0
-20.258047 22.867577 2.6685927 0
-19.816088 22.795954 2.6383786 0
-10.093596 24.175566 2.7484713 0
-3.8856869 24.30616 2.5820622 0
24.754797 27.406578 2.5791292 0
24.407951 27.8255 2.5848958 0
24.739851 27.734715 2.5954988 0
24.299664 28.197546 2.599545 0
24.823658 28.182983 2.6228435 0
26.115009 28.465311 2.6979015 0
16.558231 29.14043 2.9280844 0
24.837667 29.280039 2.6815319 0
-4.0671883 31.393036 2.7652774 0
-3.9844406 31.415695 2.7663233 0
39.721832 31.084835 2.6408722 0
39.836891 31.577877 2.6615973 0
40.052032 31.543991 2.669343 0
26.272335 32.990143 2.9456763 0
26.464067 33.02594 2.9560003 0
26.737423 33.046555 2.9691143 0
27.110382 33.087646 2.9878092 0
21.392864 33.907799 2.8001642 0
21.705658 33.701065 2.7997456 0
22.204473 33.668217 2.8168592 0
22.679495 33.698551 2.8370421 0
23.238773 33.730721 2.8609223 0
23.81842 33.782841 2.8870811 0
24.318937 33.816692 2.9093101 0
24.742474 33.848961 2.9285161 0
25.173981 33.883617 2.9483738 0
25.521074 33.909893 2.964371 0
26.137022 33.952484 2.9928317 0
20.833776 34.364799 2.8067913 0
21.166204 34.075485 2.8016989 0
19.971035 34.991879 2.813976 0
20.277985 34.776573 2.8116882 0
20.588295 34.557999 2.8095114 0
19.427183 35.433243 2.8223472 0
19.636913 35.290051 2.820673 0
41.327309 35.100658 2.8391209 0
41.746918 35.127029 2.8568106 0
42.178078 35.156673 2.875128 0
43.210312 35.232597 2.9194045 0
43.825256 35.288994 2.946305 0
44.280136 35.315529 2.9657738 0
18.827919 35.915291 2.8322523 0
19.267633 35.538467 2.823463 0
18.271437 36.352631 2.8417115 0
18.622442 36.067177 2.8350425 0
17.475067 36.94833 2.8547139 0
17.780329 36.727547 2.8500264 0
61.76292 36.833752 2.509553 0
62.298023 36.887951 2.5265839 0
62.922672 36.993542 2.5472443 0
16.912998 37.399502 2.8668513 0
17.227512 37.173004 2.8616199 0
63.368053 37.000431 2.5607855 0
16.33889 37.844357 2.8790824 0
16.658117 37.6133 2.8732226 0
16.121258 38.155067 2.8930802 0
16.093666 38.750664 2.9307485 0
16.073318 39.218822 2.9604647 0
16.06723 39.557457 2.9822288 0
-4.6732492 40.95364 2.8789892 0
-6.1341324 41.204437 2.9096823 0
-5.8739476 41.197857 2.9066131 0
-5.1438465 41.094395 2.8926616 0
-4.8104582 41.034164 2.8856859 0
-4.3750944 41.179317 2.8923824 0
17.53764 48.699589 2.710165 0
17.492483 49.050991 2.7267034 0
16.073132 49.920456 2.7459629 0
16.827824 49.867142 2.7556973 0
17.215513 49.733826 2.7556627 0
17.50597 49.580261 2.7530806 0
13.370129 50.372494 2.7287965 0
15.821616 50.218567 2.7568491 0
16.413504 50.440067 2.7773645 0
16.67157 50.182812 2.7687814 0
12.986747 50.84795 2.7478468 0
13.183892 50.623779 2.7390547 0
13.694027 50.655777 2.7475328 0
14.269047 50.885593 2.767159 0
14.688562 50.865166 2.772131 0
16.093334 50.52636 2.7765272 0
16.714804 50.845852 2.8024857 0
12.932471 51.306801 2.7704563 0
15.900585 51.298664 2.8121157 0
-2.8333359 80.303123 2.8043141 0
-2.3281846 80.107391 2.7969155 0
-1.833027 80.170235 2.7986605 0
-1.331839 80.274086 2.8019409 0
-0.97258157 80.785065 2.8196001 0
3.9138436 -49.048195 3.4373198 0
4.0804181 -49.186775 3.4479232 0
3.4289324 -48.640472 3.406348 0
3.6660786 -48.827194 3.4205785 0
2.8935776 -48.149544 3.3696561 0
3.2010188 -48.426018 3.3903041 0
1.6742921 -47.64637 3.3304529 0
2.2652068 -47.629929 3.3310113 0
2.5787354 -47.881714 3.3497059 0
1.8897809 -47.406754 3.3142695 0
2.0337706 -47.424755 3.3159437 0
-4.0819368 -44.117577 3.0948157 0
-3.7624929 -44.386822 3.1116037 0
-3.3270767 -44.178822 3.0946763 0
-19.579836 -43.858849 3.3552861 0
-5.2703705 -43.073051 3.0310583 0
-5.6989818 -42.707218 3.0095036 0
-5.2583914 -42.951698 3.0225477 0
-4.9656315 -42.747726 3.0059459 0
29.163177 -34.310883 3.1454589 0
28.942574 -33.727848 3.1044421 0
29.087807 -33.473274 3.0976059 0
24.727968 -27.236984 3.2143037 0
26.00009 -27.355349 3.2976246 0
24.92063 -26.936344 3.2062852 0
25.192673 -26.818832 3.2150011 0
37.635689 -24.056437 3.1200676 0
37.608284 -23.717215 3.1057441 0
37.801716 -23.369736 3.1043491 0
21.769526 -21.784475 3.2318809 0
21.758669 -21.30669 3.1957488 0
22.832403 -21.026775 3.2573161 0
27.059793 -21.365608 3.0122187 0
21.832926 -20.807978 3.1649547 0
22.185066 -20.689407 3.1833098 0
22.860725 -20.851679 3.247072 0
22.409252 -20.129261 3.1609406 0
32.7272 -20.095049 3.3557284 0
22.465252 -19.989086 3.1555054 0
22.750822 -19.86681 3.1695538 0
23.134447 -19.760174 3.1927171 0
32.750179 -19.830515 3.345386 0
33.013767 -19.848736 3.3659546 0
32.460197 -19.377096 3.3032029 0
-1.6448929 -16.564001 3.2261987 0
-0.41752398 -16.524368 3.2036829 0
-1.5403951 -16.29406 3.1720085 0
-1.2676884 -16.277618 3.2751031 0
-0.76244366 -16.27667 3.2985821 0
-0.26624092 -16.424887 3.3329003 0
0.24664736 -16.194954 3.1391134 0
0.70548153 -16.339783 3.1698146 0
18.033966 -16.310287 3.4105761 0
18.246403 -13.171949 3.1560004 0
18.867111 -13.148843 3.2252903 0
19.298243 -13.168401 3.2766914 0
19.552975 -13.16677 3.3061962 0
-11.474371 -12.600409 3.3032854 0
18.452484 -12.932447 3.1600645 0
19.660406 -12.71217 3.2836502 0
-12.147217 -12.075945 3.3200765 0
-11.735395 -12.033436 3.2578731 0
-11.508072 -11.770468 3.4887583 0
-11.323152 -11.930989 3.4860969 0
23.878937 -11.590061 3.25318 0
24.353458 -11.752516 3.3143587 0
24.500395 -11.519033 3.3182585 0
-12.098738 -11.131721 3.4843919 0
-11.825873 -11.329537 3.4708776 0
24.564804 -11.133165 3.305584 0
-5.7082758 -10.636221 3.0423021 0
-5.3192472 -10.780844 3.0297914 0
-14.740461 -8.5371752 3.3017588 0
12.275373 -8.7587337 3.4703648 0
-14.84969 -8.4172916 3.3086281 0
13.954368 -8.4109764 3.4529972 0
14.128508 -8.365325 3.4798179 0
20.245647 -8.1949091 3.2183807 0
15.786382 -7.8818512 3.2615337 0
20.059689 -7.6173682 3.2636254 0
-10.107742 -7.1423016 3.0738599 0
19.964558 -7.1850767 3.3530164 0
20.035805 -7.430078 3.2499039 0
-9.9424171 -6.8455787 3.0423021 0
19.863718 -6.7679009 3.3161426 0
15.113351 -6.0255337 3.2515647 0
19.7367 -6.2487655 3.2713578 0
15.151613 -5.939065 3.3014731 0
19.613661 -5.7505975 3.2297013 0
19.46916 -5.1569433 3.1823463 0
19.524294 -5.4007525 3.2008579 0
19.363455 -4.7083359 3.2197819 0
-24.168083 -4.1566191 3.2223938 0
19.386061 -4.3078933 3.3153837 0
19.520206 -4.0804729 3.150903 0
19.544493 -3.9923613 3.1518416 0
18.794312 -3.1220877 3.0099242 0
18.931139 -2.9041736 3.0258596 0
21.070814 -2.03514 3.3451948 0
21.259703 -1.7587748 3.3711627 0
21.469173 -1.4852053 3.4008853 0
21.658003 -1.227836 3.4282391 0
21.921007 -0.86699748 3.467057 0
22.089462 -0.6334334 3.4924514 0
21.452587 0.55205572 3.0092006 0
21.620487 0.79190606 3.0338621 0
21.893194 1.1775479 3.0746124 0
22.065128 1.4584196 3.1010549 0
16.089354 2.3078802 3.2974851 0
23.851343 4.4241271 3.402504 0
24.321535 4.3919277 3.0286968 0
24.724785 4.3465834 3.0764697 0
23.290623 4.8423653 3.3365359 0
23.81785 4.6077352 3.4026897 0
-14.468234 5.2212868 3.2592232 0
23.360744 5.2881999 3.3595271 0
23.549374 5.2771692 3.3849683 0
23.398798 5.777061 3.3805144 0
23.845034 5.9326363 3.0111477 0
23.832983 6.0456572 3.0130978 0
56.916451 6.8188853 3.0016766 0
-35.664474 9.262063 3.2195332 0
-7.4571085 11.49853 3.152914 0
-7.3892012 11.512175 3.1470652 0
24.264095 13.945906 3.4303782 0
16.352625 14.345475 3.244503 0
17.395113 14.209599 3.1499512 0
23.425604 14.243258 3.3603439 0
23.525089 14.056519 3.358963 0
24.139015 14.121704 3.4279408 0
-5.0655699 14.676864 3.0086763 0
-4.5636487 14.762651 3.1056209 0
-4.3003125 14.75001 3.1804969 0
-3.7808681 14.738331 3.3540115 0
-3.4776115 14.955164 3.2534022 0
15.457067 14.959417 3.3993208 0
15.745667 14.809304 3.3607376 0
16.163076 14.763806 3.1873937 0
22.358311 14.803888 3.2865725 0
23.044741 14.902814 3.3637564 0
23.740032 14.940047 3.4381778 0
-44.919582 15.216697 3.3130605 0
-4.8661556 15.184315 3.3789806 0
-4.296967 15.143193 3.0503998 0
-3.7180898 15.185638 3.0807059 0
-3.4140549 15.001925 3.2600553 0
14.996213 15.496751 3.0239532 0
15.19918 15.325165 3.1979892 0
15.726583 15.263795 3.2404866 0
22.400219 15.284842 3.3238158 0
22.641523 15.145144 3.3387325 0
23.668892 15.048737 3.4379339 0
-45.289047 15.736502 3.3492875 0
-4.9729795 15.68822 3.4879262 0
-3.582582 15.82085 3.1437688 0
-3.2568297 15.693192 3.3436441 0
14.891451 15.846646 3.1265304 0
15.165052 15.665319 3.251405 0
15.691983 15.518719 3.4878628 0
22.210463 15.782093 3.3396263 0
-3.213804 16.122086 3.2131889 0
-2.9523981 16.057285 3.4600663 0
14.894474 16.072584 3.463042 0
15.148169 16.142733 3.398818 0
15.102331 16.546547 3.1416936 0
22.460289 16.576342 3.4216034 0
22.646177 16.640482 3.4446776 0
35.156864 16.81982 3.4055235 0
35.721954 16.683098 3.4450922 0
22.409901 17.132507 3.4576769 0
22.518333 17.434307 3.4908252 0
23.19894 17.455498 3.0463777 0
22.740582 17.836582 3.0325797 0
34.984955 17.609215 3.4224319 0
35.247391 17.743279 3.4482298 0
35.564259 17.62652 3.4684501 0
43.293266 17.993771 3.2750664 0
22.915932 18.320023 3.0785723 0
23.01687 18.23156 3.0810807 0
34.475292 18.294104 3.410346 0
34.667084 18.055046 3.4154592 0
35.230171 18.07649 3.460083 0
42.933174 18.156054 3.2562323 0
45.19643 18.375544 3.4083011 0
22.878906 18.581591 3.0927882 0
23.195358 18.721777 3.1279097 0
34.705265 18.760899 3.4473581 0
42.765976 18.711338 3.2608361 0
43.166222 18.646511 3.2846928 0
43.590519 18.669947 3.3125954 0
45.113541 18.504633 3.406348 0
-3.3782074 19.311089 3.0974023 0
34.350239 19.472172 3.4503217 0
34.717712 19.255983 3.4691467 0
42.980949 19.040163 3.2838557 0
43.090179 19.324226 3.298923 0
59.076748 19.368711 3.2557151 0
59.675465 19.16074 3.282197 0
60.562511 19.133438 3.3260546 0
58.181435 19.977795 3.2213826 0
58.834938 19.892622 3.2523656 0
59.030796 19.660789 3.2582273 0
58.381565 20.242794 3.2358274 0
-19.752451 21.961657 3.0994778 0
-20.70566 22.384344 3.1998253 0
-20.406733 22.480339 3.1860275 0
-20.053802 22.93331 3.1968985 0
-19.673698 22.785643 3.1589897 0
-19.71056 23.261887 3.1995466 0
-9.7873373 23.937269 3.1694152 0
-9.5792923 24.069717 3.1749401 0
-9.4129658 24.192822 3.1815209 0
-3.8701355 24.307461 3.0162661 0
21.703449 28.382717 3.1217442 0
24.884825 28.17189 3.2843771 0
24.844591 28.659578 3.3141844 0
34.576191 28.966331 3.1507604 0
24.700541 29.176516 3.3403311 0
34.463852 29.038015 3.1479702 0
16.349434 30.455235 3.0199466 0
16.515816 30.435667 3.0253503 0
48.993359 30.450203 3.020622 0
49.744949 30.283733 3.0496161 0
50.469051 30.302607 3.082588 0
48.754528 30.721064 3.0175517 0
49.512569 30.560181 3.0467901 0
50.27277 30.604099 3.0819597 0
-4.1140833 31.359436 3.3191967 0
48.605545 31.050669 3.0202036 0
55.8894 31.931131 3.3708541 0
56.187 32.335625 3.3949289 0
21.390079 32.945427 3.4323673 0
21.737499 32.810249 3.4391656 0
22.281702 32.850143 3.4685662 0
22.663128 32.891983 3.4904132 0
20.869904 33.379932 3.4399788 0
21.156967 33.151459 3.4364929 0
27.401264 33.127338 3.0028768 0
27.659924 33.122429 3.0141773 0
20.335398 33.797256 3.4466608 0
20.629023 33.576981 3.4435234 0
26.412144 33.981876 3.0062251 0
26.576044 33.985649 3.0134797 0
19.803192 34.224792 3.4552021 0
20.053988 34.043854 3.4525876 0
26.835861 34.027618 3.0270123 0
19.224934 34.701214 3.4665673 0
18.360468 35.373501 3.4826272 0
18.617294 35.197777 3.4794316 0
17.815029 35.809624 3.4950323 0
18.109928 35.564373 3.4874499 0
16.054697 39.88533 3.0031555 0
15.062761 40.274673 3.0034347 0
16.056536 40.25428 3.0271518 0
15.05726 40.830017 3.0397081 0
16.038446 40.748535 3.0588212 0
15.071141 41.39019 3.0768185 0
16.023058 41.27515 3.0927229 0
15.081281 41.806694 3.1044419 0
16.016571 41.645546 3.1167192 0
15.070752 42.192036 3.1295543 0
16.002228 42.001389 3.1395993 0
15.064609 42.596527 3.1560619 0
15.070181 43.239441 3.1986134 0
15.08223 43.934109 3.2447922 0
15.088013 44.404388 3.2760432 0
15.057894 44.776806 3.3000391 0
-5.0285249 49.54813 3.4791739 0
-4.810689 49.716019 3.4893584 0
12.27562 59.491554 3.1809793 0
12.848189 59.480873 3.1866317 0
13.229936 59.439213 3.1887949 0
-5.5247283 59.678772 3.1384826 0
-5.3302994 59.684425 3.1378546 0
11.97947 59.914482 3.1996109 0
12.295073 59.585121 3.1860037 0
12.673314 59.526543 3.1870501 0
13.810547 59.849064 3.2164631 0
11.84314 60.246933 3.2153118 0
15.183587 61.430672 3.313808 0
14.638835 62.123154 3.3423836 0
14.997444 62.760612 3.3792281 0
15.296194 63.132446 3.4018371 0
3.2600379 86.930031 3.0361164 0
3.506927 86.964439 3.0376523 0
2.7642195 87.431168 3.0530081 0
3.0228376 87.098602 3.0417004 0
3.7824092 87.301003 3.0497973 0
4.0536771 87.224792 3.0475636 0
9.8593922 91.709381 3.2193389 0
10.279844 91.62912 3.2181523 0
8.9833555 93.10276 3.2646384 0
9.2769918 93.086014 3.2650573 0
16.257259 95.957314 3.3969774 0
16.682947 95.770706 3.3930686 0
66.930405 -91.084518 3.9454579 0
67.044067 -90.618263 3.9347086 0
67.362946 -90.476189 3.9373612 0
71.215614 -88.550705 3.9665372 0
71.724815 -88.612427 3.9793804 0
11.895605 -54.223194 3.8784602 0
12.063234 -54.186146 3.8784602 0
-4.1393266 -44.141163 3.8745956 0
-3.7492666 -44.402618 3.8943508 0
-3.4107385 -44.101624 3.8657055 0
-3.1840656 -43.840942 3.8414764 0
-4.2774553 -42.073853 3.6957521 0
-4.7571135 -41.653156 3.6636789 0
-4.4565587 -41.931087 3.6849446 0
-5.2309451 -41.255913 3.6341329 0
-8.290287 -40.543335 3.616266 0
-5.7536645 -40.799629 3.6006477 0
-8.6777391 -40.194939 3.5934312 0
-8.2655678 -40.409901 3.604413 0
-7.9625998 -40.190628 3.5803578 0
-6.6063719 -40.060104 3.547936 0
-6.2680459 -40.349152 3.5682433 0
-8.9554539 -39.989285 3.5810552 0
-7.7089181 -39.895092 3.550725 0
-7.2624774 -39.597797 3.5179546 0
-6.8816109 -39.802044 3.529691 0
-7.3268495 -39.432201 3.5047069 0
21.952263 -21.718866 3.7857492 0
22.165991 -21.659918 3.7993987 0
22.112251 -21.20933 3.7561753 0
22.180622 -20.815079 3.7289581 0
22.920719 -20.018616 3.7306643 0
36.360928 -20.351934 3.6413667 0
36.790375 -20.440907 3.6779723 0
22.98213 -19.942026 3.7301769 0
36.086868 -19.90167 3.6012752 0
-0.067646846 -17.228081 3.966337 0
-1.6179428 -16.979202 3.6151683 0
-1.1713589 -16.589359 3.7272465 0
-0.67983091 -16.597097 3.6713784 0
-0.26858628 -16.628933 3.7682889 0
0.26153728 -16.660992 3.6342747 0
0.64592952 -16.682768 3.5384908 0
-0.77827394 -16.411854 3.7822146 0
17.960184 -16.400318 3.8445334 0
18.008692 -16.341164 3.8439078 0
18.972998 -13.17153 3.6505547 0
19.029207 -13.131967 3.6543088 0
-11.545186 -12.549433 3.614337 0
-11.410135 -12.598404 3.6026938 0
24.546549 -12.673372 3.8756921 0
-11.749216 -12.152654 3.5827343 0
-11.251973 -12.219575 3.7222261 0
24.000015 -12.298374 3.7832816 0
24.866001 -12.125099 3.8812594 0
-12.041497 -11.997665 3.9132485 0
-11.721995 -11.901164 3.7847672 0
-11.282525 -11.852697 3.7669177 0
24.337811 -11.592497 3.7818897 0
-12.079328 -11.183137 3.5880232 0
-11.798053 -11.155198 3.7374868 0
24.332876 -11.266082 3.7617931 0
24.787296 -11.057552 3.807776 0
25.023872 -11.022433 3.8361673 0
-12.027285 -10.996729 3.7512839 0
-11.874026 -10.990623 3.7242897 0
24.262018 -10.96071 3.7348492 0
25.065638 -10.946937 3.8372808 0
-14.536168 -8.6196251 3.5819027 0
11.370198 -8.9725857 3.6261251 0
11.748652 -8.8722782 3.6818318 0
12.254417 -8.7383575 3.7505414 0
12.741488 -8.6730156 3.7582784 0
13.229753 -8.5869083 3.8189416 0
13.530402 -8.5036221 3.8253784 0
13.751509 -8.412674 3.7698624 0
14.294024 -8.2762032 3.701035 0
14.778321 -8.2315893 3.7140729 0
15.398845 -8.0182428 3.680037 0
20.234747 -8.1795702 3.8399401 0
15.474684 -7.9995055 3.6925116 0
15.704163 -7.903543 3.7267475 0
16.021334 -7.822165 3.7794189 0
20.067938 -7.6440153 3.7780633 0
19.958519 -7.121068 3.7280526 0
20.022818 -7.3801179 3.7542737 0
19.865929 -6.7424865 3.6907184 0
15.099463 -6.0371475 3.7431855 0
19.727148 -6.2158632 3.7209578 0
15.140724 -5.9435825 3.7440856 0
19.600821 -5.7507625 3.7771783 0
19.459839 -5.1917191 3.7847452 0
19.526608 -5.3858576 3.6361585 0
19.360813 -4.777204 3.7127247 0
-24.205458 -4.1144791 3.8811393 0
19.398428 -4.2594047 3.8063788 0
19.556629 -4.0325093 3.69226 0
19.780037 -3.728982 3.7220988 0
19.982906 -3.4513316 3.7498441 0
20.150278 -3.2216206 3.7735364 0
20.385277 -2.8981595 3.7611306 0
20.589197 -2.6148841 3.6511266 0
20.828787 -2.2854381 3.6863027 0
21.008394 -2.0406439 3.7132928 0
21.213486 -1.7610844 3.7449834 0
21.442604 -1.4461899 3.7810154 0
21.625875 -1.1876073 3.8105357 0
21.892506 -0.83228159 3.854573 0
22.088507 -0.57335788 3.8876352 0
22.334461 -0.26224697 3.7300599 0
22.539776 -0.015210453 3.562326 0
22.694923 0.22512303 3.7343256 0
22.960745 0.61683077 3.6303225 0
16.086086 2.2739966 3.7395866 0
74.397881 4.3668237 3.9032156 0
24.250904 4.8698955 3.8210549 0
74.403732 4.6017628 3.9042623 0
-14.547589 5.2562089 3.8446229 0
-14.490679 5.3554854 3.8397844 0
23.712965 5.4242539 3.8451593 0
24.133511 5.2251387 3.9033525 0
24.633049 5.2333589 3.9809442 0
23.632526 5.6761756 3.8418741 0
-32.805397 6.9218197 3.518846 0
-32.792431 7.0780678 3.520937 0
56.436264 7.3531866 3.976398 0
56.679859 7.2110944 3.9920232 0
16.545021 14.448821 3.8647139 0
23.938377 14.245306 3.9082589 0
24.178394 14.312847 3.9420781 0
-5.0334368 14.695951 3.91854 0
-4.6990471 14.756197 3.8073497 0
-4.2409649 14.759191 3.68365 0
-3.8229644 14.799954 3.8135831 0
-3.4202452 14.94778 3.8112373 0
15.436813 14.85339 3.7688601 0
15.860974 14.931423 3.832531 0
16.390509 14.725731 3.876869 0
16.787323 14.868616 3.5441792 0
22.314398 14.816345 3.7576737 0
22.67384 14.955062 3.8105593 0
23.467735 14.913124 3.901022 0
23.694494 14.648908 3.9083519 0
-5.0431046 15.110542 3.9597776 0
-4.6898532 15.143997 3.9407465 0
-4.2702775 15.040387 3.9247749 0
-3.6464627 15.104984 3.8208683 0
-3.3026876 15.163855 3.7769237 0
15.751591 15.014541 3.8285952 0
16.236734 15.004159 3.889719 0
16.798607 15.085023 3.6687379 0
22.471251 15.320996 3.8155699 0
22.543449 15.118859 3.8080544 0
23.466587 15.320866 3.9319184 0
-3.1798882 15.641546 3.8206997 0
14.968804 15.637297 3.8084517 0
15.164036 15.611687 3.8291159 0
15.804029 15.68426 3.9176188 0
22.438868 15.501331 3.8261466 0
22.665012 15.917917 3.8857131 0
-3.580265 16.19565 3.5153711 0
15.229101 16.236677 3.9168084 0
15.839312 16.065737 3.9695971 0
22.412472 16.051693 3.8676205 0
15.282267 16.572252 3.9664717 0
37.235416 16.902037 3.5733855 0
37.567558 16.776127 3.5953486 0
23.373316 17.471106 3.5771089 0
36.870239 17.010853 3.5482848 0
22.810743 17.885845 3.5532227 0
23.318312 17.544451 3.5771089 0
22.892672 18.276815 3.5909207 0
22.799955 18.5105 3.6000202 0
51.694881 18.815035 3.8434887 0
52.151836 18.622606 3.868973 0
52.661564 18.618189 3.9024563 0
-38.957809 19.438311 3.8048713 0
50.836708 19.126133 3.7947521 0
52.070091 19.313839 3.8801341 0
-39.036396 19.708 3.821605 0
-3.550415 19.629158 3.8680801 0
50.539932 19.727646 3.7904272 0
51.435066 19.714088 3.8484645 0
67.849907 19.840214 3.7022455 0
68.445335 19.781031 3.7313442 0
50.435509 20.23011 3.796566 0
68.093384 20.130856 3.7187836 0
68.523514 20.492243 3.7457891 0
67.395386 20.607195 3.6909411 0
67.774216 20.726398 3.7117708 0
67.959305 21.244478 3.7290416 0
-37.179192 24.868307 3.9091096 0
-37.178383 25.033976 3.9171276 0
21.621078 28.427719 3.7488089 0
25.12468 28.411993 3.9812801 0
24.854681 28.727335 3.9875517 0
25.022051 28.565969 3.9862971 0
16.441809 29.210304 3.5180101 0
16.53153 29.155046 3.517592 0
5.9414787 30.121548 3.7638128 0
6.2361879 30.126484 3.7716126 0
7.1641498 30.109459 3.7942801 0
16.344402 30.462135 3.628392 0
16.209234 30.543322 3.6292279 0
-4.0539746 31.366091 3.8773949 0
-3.9685521 31.389021 3.8788576 0
22.90769 32.935966 3.5057526 0
23.245245 32.978359 3.5257404 0
23.741213 33.02475 3.5542114 0
24.259779 33.091442 3.5855873 0
24.780554 33.148808 3.6167309 0
25.132338 33.186817 3.6378808 0
25.75486 33.254555 3.6757064 0
26.21459 33.304142 3.7038867 0
26.775558 33.374123 3.7392137 0
27.252968 33.430576 3.7693117 0
27.619976 33.459366 3.7916234 0
42.26741 34.781883 3.8243289 0
42.723976 34.822575 3.8508363 0
43.186596 34.873119 3.8781807 0
60.216713 35.895931 3.6714721 0
60.709423 35.934666 3.6947093 0
17.269276 36.24958 3.5087504 0
17.564613 36.00322 3.5005231 0
61.275169 36.021229 3.7225518 0
61.774464 36.054001 3.7459986 0
16.418434 36.952538 3.5334682 0
16.769739 36.661346 3.5229049 0
15.853221 37.391113 3.5489817 0
16.169127 37.160015 3.5413122 0
15.595665 37.70063 3.5652511 0
15.573904 38.283932 3.6117339 0
15.568354 38.61721 3.6385777 0
15.600067 39.211838 3.6879082 0
15.618342 39.798084 3.7361925 0
15.594385 40.106903 3.7605958 0
15.623527 40.742733 3.8134122 0
15.660009 41.404732 3.868669 0
15.664145 41.811916 3.9021368 0
-5.7634931 42.49947 3.7480454 0
15.676976 42.249416 3.9383936 0
-6.1893373 42.640751 3.7654769 0
-5.9013472 42.512733 3.7508345 0
15.67284 42.633251 3.9697697 0
12.917974 50.28669 3.6271973 0
13.309135 50.189289 3.6275225 0
13.785657 50.088085 3.6293828 0
14.159273 50.243778 3.6468685 0
12.75819 50.568314 3.6435204 0
-51.646957 51.500172 3.8198967 0
-51.347397 51.672104 3.8151867 0
-50.090912 52.491566 3.8000088 0
-49.893314 52.602367 3.7970779 0
16.431479 53.780804 3.9289637 0
16.647499 53.881401 3.9401245 0
15.788568 54.386517 3.9567266 0
16.138811 54.329399 3.959796 0
15.548076 54.511848 3.9604936 0
16.519936 54.68391 3.9911864 0
-41.76088 57.712399 3.7308559 0
-41.400608 57.978222 3.7311349 0
-41.215961 58.104736 3.7309258 0
-39.133549 59.354977 3.7233896 0
-38.938835 59.478119 3.7231798 0
-38.770813 59.611603 3.7242265 0
12.471911 66.556824 3.5462844 0
12.681374 66.667679 3.5540299 0
12.271772 67.134079 3.5741272 0
-5.4277859 67.906136 3.5676374 0
-5.6638579 68.163437 3.5820823 0
-5.2279868 68.066048 3.5751741 0
17.343906 -116.08816 4.0972009 0
16.958282 -115.99967 4.0921755 0
66.629639 -96.811699 4.102366 0
67.069466 -96.828651 4.1115794 0
43.155586 -74.166489 4.4945078 0
43.356205 -73.727615 4.4799576 0
43.487911 -73.422615 4.4696999 0
43.636509 -73.148415 4.4613266 0
43.818508 -72.687477 4.4455209 0
4.9372797 -50.077309 4.3982277 0
5.1094623 -50.208233 4.4111266 0
4.4229264 -49.6133 4.3536038 0
4.680407 -49.875778 4.3785305 0
3.8423929 -49.137985 4.3079338 0
4.1757927 -49.406712 4.3337321 0
3.4310021 -48.765038 4.2727232 0
3.5979135 -48.904839 4.2859707 0
-4.3029866 -42.047932 4.4374423 0
-4.7201743 -41.637417 4.3992543 0
-4.4818473 -41.841259 4.4177909 0
-5.2479386 -41.158382 4.3559103 0
-4.9554496 -41.411232 4.3784885 0
-8.176774 -40.560505 4.3437848 0
-5.753706 -40.716232 4.3169417 0
-8.6825619 -40.145725 4.3120079 0
-8.2363749 -40.411457 4.3297081 0
-7.8479428 -40.195854 4.2994647 0
-6.5339909 -40.043331 4.2593255 0
-6.2484055 -40.275845 4.2787681 0
-7.5956507 -39.902107 4.2641344 0
-7.2190113 -39.595818 4.2252493 0
-6.7900448 -39.812092 4.2398138 0
-7.1948962 -39.460899 4.2108245 0
17.99876 -16.340567 4.2779965 0
18.048147 -16.286001 4.2779965 0
24.172155 -12.785254 4.3234315 0
24.800892 -12.193285 4.3695278 0
-11.754418 -11.218133 4.0393925 0
-11.941005 -10.978807 4.0323539 0
13.418646 -8.5879669 4.0191164 0
13.663424 -8.5358028 4.0644493 0
13.866936 -8.4540749 4.0573921 0
14.243909 -8.3822489 4.1393919 0
14.757974 -8.2580614 4.2358751 0
15.601996 -8.0245829 4.4273076 0
20.201967 -8.2161674 4.2298536 0
15.7825 -7.902245 4.3441358 0
20.023573 -7.6405349 4.1565828 0
19.948021 -7.2024207 4.2411308 0
19.844072 -6.7577515 4.2410593 0
15.137807 -6.026907 4.0806026 0
19.732737 -6.2880387 4.2354679 0
15.172523 -5.9575071 4.0823131 0
19.616596 -5.7595363 4.3354936 0
19.468462 -5.1617689 4.2709217 0
19.530237 -5.405272 4.2971187 0
19.367386 -4.7576466 4.2289238 0
19.380463 -4.2864213 4.2088456 0
19.546722 -4.0371857 4.2322502 0
19.768095 -3.7322681 4.2659779 0
19.968706 -3.4497108 4.2971187 0
20.132132 -3.2210612 4.323494 0
20.411764 -2.8552735 4.2636676 0
20.588726 -2.617578 4.2130351 0
20.838993 -2.2717865 4.2681479 0
21.019173 -2.0384564 4.0955243 0
21.182961 -1.8071537 4.2279658 0
21.454985 -1.4587882 4.1707029 0
21.639086 -1.2018584 4.2033954 0
21.883541 -0.87410569 4.2477899 0
22.079151 -0.60740161 4.2840438 0
22.349636 -0.2321355 4.3352895 0
22.732357 0.30110294 4.2866397 0
22.92061 0.61177832 4.2411199 0
23.009132 0.76170415 4.0508647 0
16.106588 2.3008983 4.0747466 0
57.104355 6.9007092 4.0188098 0
-33.1441 7.3695135 4.1630569 0
-32.571491 7.346653 4.0938349 0
-32.065205 7.3881345 4.0343628 0
56.888351 7.0560465 4.0051374 0
-32.839298 7.9451976 4.1425829 0
-32.139881 7.7057076 4.052237 0
-32.339516 8.0902557 4.087254 0
-36.950619 11.896814 4.0749378 0
-37.224369 12.301704 4.1154947 0
-36.951736 12.022528 4.0791187 0
-11.461805 13.772589 4.1256022 0
23.842461 14.332587 4.3984675 0
15.764536 14.841545 4.1993246 0
23.748758 14.779991 4.4228196 0
-4.2546515 15.409234 4.0328536 0
16.432655 15.051292 4.3222051 0
16.880398 15.311125 4.2154102 0
17.148451 15.345985 4.2986441 0
22.471598 15.321329 4.3000708 0
22.539253 15.26394 4.3038249 0
-5.0805407 15.547842 4.0662231 0
-3.1286459 15.718316 4.0332541 0
-2.9542804 15.961577 4.0352573 0
16.575184 15.977557 4.4656935 0
22.913191 15.725401 4.3939314 0
24.749561 15.941429 4.1306572 0
-2.9428623 16.184645 4.0894475 0
16.547464 16.051413 4.4717999 0
36.859715 16.994545 4.2609982 0
37.041981 16.940804 4.2760506 0
35.197887 17.436459 4.1234388 0
35.863037 17.421783 4.1855288 0
36.871082 17.140423 4.2685242 0
22.821882 17.943754 4.0733185 0
23.285145 17.788656 4.1114516 0
23.689682 17.694656 4.1488433 0
34.851547 17.59967 4.0985613 0
35.105598 17.523773 4.1188393 0
35.816662 17.602873 4.1895008 0
37.206684 17.716291 4.3262239 0
22.723011 18.040092 4.0708132 0
23.180414 18.051142 4.1223073 0
35.806725 18.358442 4.2242041 0
35.71838 18.73361 4.2341347 0
43.462852 18.847036 4.1404209 0
35.803383 19.344276 4.2721825 0
45.50779 19.402317 4.3239708 0
34.986256 19.966051 4.2288036 0
35.120552 19.752821 4.2300577 0
35.623695 19.675678 4.2722874 0
59.148067 19.780281 4.3578262 0
59.969265 19.751049 4.4116783 0
60.019642 19.558846 4.4108415 0
58.245125 20.288637 4.3095546 0
59.111862 20.180347 4.3643837 0
-19.342602 22.066841 4.1172972 0
-19.293344 22.927069 4.2045121 0
-3.9344108 24.248775 4.3231449 0
22.074879 24.815428 4.0721421 0
22.020941 25.226551 4.1056566 0
21.957996 25.767147 4.1508698 0
21.906647 26.270914 4.1940932 0
21.879808 26.737665 4.2361789 0
21.83193 27.280628 4.2843165 0
21.73922 27.778982 4.3252244 0
21.711157 28.281286 4.3718596 0
25.41737 28.471287 4.0063667 0
16.565681 29.127628 4.1084595 0
5.9525466 30.104174 4.306016 0
6.2591777 30.176739 4.3246093 0
6.7716088 30.281052 4.3541136 0
7.2461104 30.187323 4.3563409 0
7.7844706 30.399059 4.4034371 0
8.2854595 30.397717 4.4212508 0
8.7949848 30.403528 4.4414034 0
9.2579165 30.4007 4.4595237 0
9.7261066 30.408157 4.4801493 0
10.093121 30.406326 4.4958477 0
14.298465 30.474607 4.1273084 0
14.760801 30.467386 4.1509676 0
15.278756 30.448042 4.17695 0
15.760239 30.453312 4.2043705 0
16.221098 30.412979 4.2263069 0
16.572701 30.425491 4.2481213 0
49.342346 30.33391 4.0468521 0
49.768337 30.283762 4.0704298 0
48.456055 30.933258 4.0165777 0
48.798599 30.730467 4.0292268 0
49.11998 30.515491 4.0402951 0
-4.0986948 31.335081 4.4346113 0
48.272671 31.133957 4.0133691 0
21.497164 33.463249 4.1752849 0
21.729643 33.368008 4.1801629 0
22.183237 33.380695 4.20748 0
22.760958 33.453476 4.2477231 0
23.145338 33.454178 4.2706146 0
20.958391 33.943634 4.1878281 0
21.210535 33.685707 4.1788812 0
23.405792 33.500763 4.290266 0
23.761295 33.561985 4.3170257 0
24.004772 33.56945 4.3324957 0
20.346193 34.366348 4.1925673 0
20.703609 34.120296 4.1897101 0
19.920956 34.748478 4.204762 0
20.108055 34.580734 4.1993265 0
19.3209 35.206875 4.2159462 0
19.566841 35.006138 4.2099881 0
18.435909 35.941353 4.2405109 0
18.68247 35.740414 4.2336817 0
-4.8352146 36.17466 4.475286 0
-4.1188149 36.189217 4.4662671 0
-3.7399724 36.360935 4.4822326 0
-3.2322197 36.431175 4.484889 0
-2.7805374 36.486454 4.4870667 0
17.825039 36.378761 4.2528448 0
18.173998 36.123394 4.24511 0
-2.5548322 36.508377 4.4877167 0
-2.2686505 36.525063 4.487473 0
-1.7599118 36.560532 4.4883995 0
-1.2480514 36.600975 4.4907632 0
-0.75450349 36.641975 4.4941511 0
-0.24596055 36.688919 4.4990506 0
17.490709 36.657734 4.2639251 0
17.591988 36.573929 4.2605805 0
16.753313 37.318832 4.2944474 0
15.934027 37.835953 4.3099174 0
16.26882 37.640778 4.3049002 0
15.676977 43.068768 4.0056777 0
15.694053 43.53302 4.0443749 0
15.712019 44.226971 4.1020722 0
-5.7702041 49.200397 4.3297811 0
-5.3973126 49.342346 4.3384385 0
-5.1467762 49.867867 4.3818417 0
-4.8195457 49.754436 4.3691173 0
-63.701435 53.720989 4.3646092 0
-62.838249 54.801384 4.3671217 0
17.269991 55.288334 4.0469913 0
17.512392 55.475704 4.0645704 0
17.826181 55.85754 4.0966578 0
-1.8156481 79.889832 4.1854115 0
-1.4615574 79.853226 4.1831083 0
-2.1679773 80.488518 4.2172313 0
-1.2135794 80.049141 4.1931572 0
-0.83802044 80.221634 4.2019491 0
-0.46409959 80.943787 4.2396307 0
42.690563 -75.24691 4.5314565 0
42.892502 -74.779785 4.5154419 0
11.802155 -54.222713 4.8507404 0
13.000242 -53.074623 4.7764831 0
13.270447 -52.75555 4.7551007 0
13.564413 -52.525913 4.7419696 0
13.831191 -52.222565 4.7222142 0
14.239923 -51.812359 4.6968808 0
14.504236 -51.508759 4.6774745 0
14.643548 -51.394749 4.6711988 0
17.954987 -16.356813 4.7118373 0
20.233631 -8.1513443 4.6264505 0
20.042608 -7.6499653 4.745574 0
19.959194 -7.2698717 4.795886 0
20.028 -7.4248633 4.5299797 0
19.828417 -6.7729735 4.8264213 0
19.702532 -6.2548075 4.7613783 0
19.574116 -5.7551508 4.6992917 0
19.442423 -5.2080154 4.6886492 0
19.506456 -5.4758544 4.6663852 0
19.342636 -4.7574911 4.7711649 0
19.368986 -4.2881794 4.7515306 0
19.537363 -4.040194 4.778491 0
19.734735 -3.7772222 4.7596488 0
19.973907 -3.4646392 4.6690841 0
20.162706 -3.2050555 4.7023764 0
20.418024 -2.8572314 4.7487168 0
20.588268 -2.6203923 4.7804346 0
20.826078 -2.2899327 4.8260355 0
21.006865 -2.0455835 4.8616419 0
21.23225 -1.7334647 4.7572374 0
21.448259 -1.4393964 4.7160878 0
21.612511 -1.2122455 4.7664814 0
21.875828 -0.83986413 4.6430836 0
22.066996 -0.58130604 4.6818943 0
22.315203 -0.24012919 4.733377 0
22.672852 0.24823533 4.8094134 0
22.885653 0.60619783 4.8559856 0
-32.647873 7.4873376 4.7007103 0
-33.033825 7.6820974 4.7597203 0
-32.791729 7.8395581 4.7316995 0
-36.639294 12.428757 4.744617 0
-36.900497 12.646854 4.7836151 0
-11.666032 13.808988 4.5620632 0
-11.416962 13.86041 4.5317106 0
23.653439 14.711344 4.9031296 0
16.486462 15.997179 4.8726187 0
16.534464 15.947561 4.8726187 0
17.156704 15.839647 4.9531221 0
23.92421 15.826225 4.5356607 0
24.456554 15.747881 4.5994864 0
-44.391731 16.358112 4.967402 0
16.442337 16.053728 4.8742814 0
16.880264 16.07671 4.9446945 0
23.339785 16.33746 4.5046868 0
23.632946 16.379631 4.5466113 0
24.611103 16.06506 4.6473546 0
23.331512 16.599218 4.5275259 0
23.509722 16.562931 4.5472369 0
-44.1553 17.364531 4.9818268 0
-42.204323 17.437759 4.7945113 0
23.463854 17.302162 4.6098108 0
23.692986 17.18936 4.628583 0
-44.02132 17.541023 4.9755549 0
-42.06979 17.533611 4.7853131 0
23.242527 17.810455 4.6302099 0
23.573389 17.607409 4.6525693 0
35.868011 18.105661 4.9274211 0
36.131737 18.454531 4.9756813 0
35.702583 18.507597 4.9318085 0
36.069756 18.558025 4.9747066 0
52.231098 19.456734 4.87218 0
-3.2599044 19.61915 4.9468188 0
-2.7365174 19.644711 4.9333925 0
-2.2412431 19.658533 4.9212961 0
-1.7502015 19.682999 4.9150062 0
-1.2661334 19.707932 4.9119821 0
-0.72192711 19.736277 4.9610791 0
-0.49892575 19.748726 4.9866085 0
35.738106 19.514128 4.9937181 0
52.169899 19.716444 4.8751435 0
52.604412 20.246496 4.9272046 0
52.67831 20.647373 4.9459138 0
68.178535 20.598753 4.976985 0
52.955925 21.137211 4.9842625 0
53.013695 21.34651 4.9957676 0
67.680359 21.133427 4.9546628 0
52.932884 21.50378 4.9943724 0
67.655228 21.70183 4.9649868 0
-37.202385 23.187393 4.6023879 0
-36.932465 23.239998 4.5812736 0
-3.8391914 24.235542 4.7603025 0
22.084452 24.877369 4.6684227 0
22.047926 25.228624 4.7021027 0
21.982052 25.793196 4.7561016 0
22.023582 25.598633 4.7391224 0
21.947771 26.245693 4.8016109 0
21.901777 26.776039 4.8549142 0
21.851593 27.22793 4.8998213 0
21.74456 27.692535 4.9416194 0
21.689198 28.13352 4.9857368 0
16.447163 29.193001 4.7023811 0
16.529013 29.123964 4.6995974 0
5.9008226 30.101421 4.8507199 0
6.2460504 30.115347 4.8637352 0
7.130188 30.121048 4.8949389 0
10.352874 30.401098 4.5067964 0
10.704572 30.346527 4.5157499 0
11.20746 30.452566 4.5537443 0
16.300632 30.461914 4.8487906 0
16.211401 30.518467 4.8499041 0
-4.075592 31.273136 4.9874439 0
-3.7518029 31.332056 4.9903841 0
-3.2662244 31.383215 4.9898839 0
-2.7747142 31.39558 4.9843779 0
-2.2842095 31.401011 4.9789963 0
-1.7464491 31.441961 4.9800391 0
-1.2103879 31.470984 4.9806232 0
-0.91420621 31.482866 4.9808736 0
0.036560673 36.712776 4.5018535 0
-44.275871 55.965897 4.9867506 0
-44.139553 56.149624 4.9909358 0
-43.756264 56.373077 4.9867506 0
-43.571655 56.500778 4.9859142 0
-43.198132 56.741451 4.9834023 0
-42.834606 56.991707 4.982008 0
-42.631493 57.094006 4.9792171 0
-42.257755 57.339493 4.9774499 0
-41.687969 57.677959 4.9730783 0
-41.334671 57.946667 4.9739156 0
-41.138382 58.047058 4.971683 0
-40.868187 58.247261 4.9722414 0
12.324894 66.928719 4.7554383 0
12.515182 66.755379 4.7459517 0
3.1356936 86.676369 4.5429702 0
3.5410779 86.580902 4.5387836 0
2.7418275 87.145432 4.5668359 0
22.807932 -96.65741 5.2021942 0
23.089588 -96.668541 5.2061715 0
17.987101 -16.342136 5.1553783 0
18.036127 -16.288012 5.1553783 0
20.202478 -8.2009182 5.2636504 0
20.065563 -7.6676502 5.3835683 0
19.951088 -7.1438608 5.3011003 0
20.025829 -7.3937097 5.3631558 0
19.857191 -6.7385588 5.2581744 0
19.735271 -6.257091 5.1854239 0
19.617035 -5.771945 5.1243782 0
19.468027 -5.1751642 5.0478077 0
19.531553 -5.4121232 5.0913091 0
19.381979 -4.7414789 5.0369315 0
19.413183 -4.3341446 5.0211153 0
19.577635 -4.0849385 5.0484257 0
19.83077 -3.7064753 5.0698447 0
19.973259 -3.4274235 5.0406847 0
20.170732 -3.2291746 5.1267223 0
20.400331 -2.8914824 5.1539173 0
20.595903 -2.6487808 5.2082376 0
20.840931 -2.2971511 5.2491226 0
21.039646 -2.0904756 5.3378887 0
21.239632 -1.7632415 5.3438735 0
21.434988 -1.4287052 5.3442159 0
21.63736 -1.2172369 5.358048 0
21.877819 -0.84815419 5.2451019 0
