# .PCD v0.7 - Point Cloud Data file format
VERSION 0.7
FIELDS x y z intensity
SIZE 4 4 4 4
TYPE F F F F
COUNT 1 1 1 1
WIDTH 1429
HEIGHT 1
VIEWPOINT 0 0 0 1 0 0 0
POINTS 1429
DATA ascii
39.391064 -77.081062 -1.5101218 0
39.878357 -77.433395 -1.5194762 0
40.237251 -77.499954 -1.5233856 0
38.991318 -76.862724 -1.5035597 0
13.318561 -55.228249 -1.9822216 0
7.1286354 -54.558891 -1.9197516 0
12.741241 -54.679581 -1.9589319 0
12.304987 -54.36298 -1.9447395 0
6.4018168 -53.533825 -1.8810828 0
6.7761135 -53.832237 -1.8930185 0
11.434565 -53.592491 -1.9119339 0
11.737148 -53.770451 -1.9202402 0
12.030668 -53.937046 -1.9281273 0
10.965774 -53.025158 -1.8891796 0
11.157759 -53.111725 -1.8935071 0
10.680364 -52.879417 -1.8821995 0
3.2498865 -52.235107 -1.8259417 0
9.3014221 -52.300274 -1.8533493 0
9.7890139 -52.201733 -1.8530236 0
10.252007 -52.406185 -1.8630748 0
3.7532835 -51.684189 -1.8079334 0
5.8840184 -51.927948 -1.8232892 0
4.2158251 -51.398056 -1.7992086 0
4.7505574 -51.161938 -1.7926244 0
5.2369628 -51.192135 -1.795323 0
5.5557256 -51.184147 -1.7962072 0
7.0952644 -50.589897 -1.7822475 0
7.7392802 -50.627331 -1.7868077 0
8.150774 -50.689678 -1.7911818 0
7.2757635 -50.210777 -1.7700326 0
6.8397961 -49.955364 -1.7590742 0
6.6120696 -49.397224 -1.7386929 0
-0.0034214177 -47.519203 -1.657726 0
1.8474712 -47.531227 -1.6594013 0
-0.58655882 -47.067822 -1.642091 0
-0.21875209 -47.37273 -1.6526308 0
0.28804323 -47.237019 -1.6479076 0
-1.0857155 -46.61105 -1.6264561 0
-0.80114847 -46.890678 -1.6360185 0
0.72483706 -46.719242 -1.6299926 0
1.165038 -46.796982 -1.6330172 0
-1.369349 -46.31163 -1.6162655 0
27.183409 -36.875717 -1.5981177 0
27.687622 -35.100304 -1.5594956 0
27.151857 -34.858448 -1.5413013 0
23.981609 -29.456287 -1.9881384 0
23.630194 -28.840738 -1.9515033 0
23.420532 -28.314793 -1.9232419 0
23.646091 -28.319572 -1.9309875 0
23.286013 -27.617876 -1.8906889 0
22.981947 -27.003881 -1.8558332 0
23.317362 -27.23225 -1.8763487 0
23.172709 -26.805988 -1.8544722 0
21.805696 -24.749044 -1.7261446 0
21.569174 -24.256964 -1.6986159 0
21.335075 -23.767029 -1.6712964 0
21.197292 -23.320915 -1.6491059 0
20.997244 -22.743105 -1.619693 0
21.095764 -22.850376 -1.6273341 0
0.83744955 -22.062456 -1.540502 0
1.3016492 -22.193382 -1.6806036 0
1.5237249 -22.095247 -1.933463 0
20.801579 -22.248795 -1.5937345 0
0.7168957 -21.559639 -1.5050657 0
1.319751 -21.867859 -1.6050895 0
20.73749 -21.69664 -1.5704275 0
21.035357 -21.567139 -1.5763589 0
0.93497747 -21.250513 -1.8567659 0
1.1348261 -21.248554 -1.8574631 0
20.3983 -21.172174 -1.5382583 0
21.403183 -21.139673 -1.5740561 0
20.886936 -20.956142 -1.5480976 0
21.297039 -20.711288 -1.5543778 0
21.874741 -20.811852 -1.5798482 0
22.110958 -20.52174 -1.5784526 0
20.062183 -20.229336 -1.9888965 0
21.758995 -20.383705 -1.5600301 0
19.659903 -19.576626 -1.9367188 0
19.432684 -19.171062 -1.9054679 0
19.643547 -19.198318 -1.9173263 0
19.331503 -18.619268 -1.8734728 0
19.332525 -18.194986 -1.8530809 0
19.796135 -18.487043 -1.8906796 0
0.45995706 -17.641205 -1.8497356 0
0.54349566 -17.722387 -1.858516 0
19.363956 -17.694763 -1.830898 0
19.582085 -17.502745 -1.8332001 0
0.3725515 -17.434349 -1.8277848 0
19.374022 -17.183971 -1.8075297 0
19.628487 -17.00304 -1.8125522 0
0.28514498 -16.996382 -1.7815832 0
19.358616 -16.719921 -1.7853472 0
19.511782 -16.796295 -1.7969267 0
0.19338831 -16.246241 -1.9890296 0
19.353394 -16.45355 -1.7729304 0
-0.1247457 -15.53006 -1.6272991 0
0.042316757 -15.692082 -1.7839386 0
19.333551 -15.791476 -1.7422377 0
19.852005 -15.687943 -1.7659549 0
-0.17171453 -15.215902 -1.7958503 0
0.016104691 -15.305553 -1.8733757 0
19.061068 -15.259302 -1.7040111 0
-0.27873451 -14.658212 -1.6651375 0
-0.82642657 -14.297656 -1.5001925 0
-0.31062514 -14.172268 -1.8599102 0
18.567278 -14.359673 -1.6379751 0
19.397346 -14.061191 -1.6719232 0
19.808937 -14.079487 -1.6960589 0
20.034679 -14.053994 -1.7079175 0
-0.53629661 -13.714948 -1.6793597 0
-0.40703729 -13.732924 -1.8018055 0
16.595806 -13.905886 -1.6732171 0
18.241516 -13.77106 -1.8233424 0
18.582727 -13.91563 -1.6200243 0
19.453175 -13.918615 -1.6692724 0
19.826927 -13.681828 -1.681131 0
20.278385 -13.806586 -1.7121028 0
-0.7084567 -13.317945 -1.6548946 0
-0.46667057 -13.154979 -1.8432086 0
17.960802 -13.228263 -1.947408 0
18.290434 -13.316183 -1.9752107 0
-0.65540344 -12.79446 -1.7480189 0
18.317732 -12.858945 -1.9539155 0
18.659357 -12.951187 -1.9829676 0
19.185989 -12.586575 -1.6011901 0
19.654232 -12.763224 -1.6353707 0
-0.65107793 -12.227857 -1.7860373 0
18.287617 -12.287321 -1.923353 0
19.135586 -12.382734 -1.5904477 0
19.787724 -12.428636 -1.6306274 0
21.361 -12.425174 -1.724659 0
-1.0897117 -11.889448 -1.6711905 0
-0.66325945 -11.751597 -1.7935508 0
21.221218 -11.748372 -1.6928501 0
26.846071 -11.597591 -1.5300939 0
-1.0720525 -11.440152 -1.6080989 0
-0.76375121 -11.26421 -1.7921687 0
21.372734 -11.387437 -1.6900599 0
-1.0636532 -10.811777 -1.7608199 0
-0.88601047 -10.901006 -1.7985678 0
-1.6071763 -10.038177 -1.6025146 0
-1.0632108 -10.165719 -1.8245519 0
-0.86927748 -10.455204 -1.7791052 0
-1.6295681 -9.8050022 -1.5668476 0
-1.1736406 -9.7508965 -1.7146627 0
-1.2281297 -9.2926512 -1.710814 0
-0.98803949 -9.296011 -1.9768243 0
19.844961 -9.237072 -1.5272948 0
-1.7331194 -8.6445847 -1.5686767 0
-1.2393708 -8.7630692 -1.7484875 0
17.912132 -8.8068314 -1.7420689 0
18.32959 -8.8366604 -1.7760599 0
18.588196 -8.7480106 -1.7931422 0
20.239758 -8.5108032 -1.9167292 0
21.1138 -8.500351 -1.5882154 0
21.563206 -8.8779106 -1.627279 0
-2.0294654 -8.4505081 -1.5239364 0
-1.8605131 -8.4068832 -1.5286938 0
-1.3344043 -8.2156763 -1.7718617 0
19.613907 -8.4248857 -1.8633897 0
20.359898 -8.4008598 -1.9227428 0
20.885534 -8.297349 -1.5681255 0
21.230124 -8.3155537 -1.5910057 0
-4.2158895 -7.7368598 -1.5452372 0
-1.6733412 -7.732152 -1.6026278 0
-1.400197 -7.7744231 -1.8295131 0
19.972631 -7.6525507 -1.8670504 0
20.001009 -7.8769102 -1.8764632 0
20.537451 -7.7540808 -1.5317326 0
-4.1351013 -7.4959078 -1.5010148 0
-3.7944465 -7.297164 -1.5895344 0
-3.4649084 -7.063735 -1.5199845 0
-2.7530234 -7.2843747 -1.6449972 0
-2.219933 -7.1959543 -1.5909402 0
-1.6279647 -7.1919227 -1.7216412 0
-1.3881447 -7.2094417 -1.8685929 0
19.95112 -7.39534 -1.8573471 0
20.420681 -7.0625453 -1.5075768 0
20.537577 -7.461226 -1.5245975 0
-3.8502579 -6.9130325 -1.5287617 0
-3.2364049 -6.7471714 -1.5805447 0
-2.6690547 -6.7471218 -1.6188855 0
-2.2617583 -6.7231231 -1.6063226 0
-1.7005491 -6.7760892 -1.7156758 0
-1.3897687 -6.8194075 -1.862146 0
19.813231 -6.6856732 -1.8252739 0
20.422106 -6.8882408 -1.5037402 0
-4.3312097 -6.4622226 -1.5028116 0
-3.5265067 -6.3090243 -1.5260719 0
-3.3455038 -6.3993907 -1.5345839 0
-2.7229877 -6.2990904 -1.5737047 0
-2.2068391 -6.2082491 -1.6180041 0
-1.806465 -6.2449031 -1.6846148 0
19.460672 -6.1311669 -1.7808824 0
19.716692 -6.379694 -1.8088303 0
-3.1293781 -5.7801895 -1.5298556 0
-2.7938552 -5.6812215 -1.5495186 0
-2.211905 -5.8043027 -1.6358172 0
-1.8558999 -5.8672938 -1.6379387 0
15.057219 -5.5456018 -1.9642899 0
19.398796 -5.7481747 -1.7659496 0
-4.4246249 -5.1205888 -1.5512625 0
-3.1098671 -5.2369032 -1.5430346 0
-2.6913903 -5.312109 -1.5738256 0
-2.285409 -5.2222505 -1.5202122 0
-1.9593843 -5.3749924 -1.5307244 0
15.127728 -5.3305101 -1.8788195 0
19.316111 -5.2382631 -1.7468003 0
-4.5524197 -4.7676148 -1.5107712 0
-4.2821941 -4.6842837 -1.5704187 0
-3.601213 -4.5972714 -1.5518789 0
-3.066968 -4.8851957 -1.5367362 0
-2.9486837 -4.8383465 -1.5123364 0
19.237406 -4.7735229 -1.7299169 0
-3.7567255 -4.3925862 -1.5358322 0
-3.4611933 -4.490766 -1.5063268 0
19.134247 -4.156106 -1.7088627 0
19.086353 -3.7771804 -1.6980553 0
14.555486 -3.3296525 -1.6812181 0
18.981436 -3.1480458 -1.6791425 0
19.025444 -3.3973007 -1.686638 0
18.911272 -2.7101443 -1.728143 0
18.855076 -2.2350831 -1.8237183 0
18.94442 -1.9793569 -1.8293993 0
19.183842 -1.7363997 -1.68106 0
19.445374 -1.4286332 -1.7016287 0
19.661379 -1.1697065 -1.7190019 0
19.908806 -0.87633139 -1.73928 0
20.107269 -0.63712537 -1.7558396 0
19.069218 -0.068576209 -1.9992113 0
20.357592 -0.33030453 -1.7771057 0
20.545662 -0.080401406 -1.7933165 0
19.046974 0.2530005 -1.9970976 0
20.822208 0.2074181 -1.8176205 0
21.054653 0.46913552 -1.838289 0
18.974863 0.77924359 -1.9909985 0
19.003887 0.54441506 -1.9931486 0
21.286242 0.74070042 -1.859256 0
18.882187 1.2440386 -1.9839036 0
21.476162 1.006994 -1.5000432 0
21.65502 1.2531353 -1.7305025 0
18.791651 1.7618794 -1.978747 0
21.674322 1.6977654 -1.8016409 0
22.169292 1.7937177 -1.551942 0
18.705311 2.2500982 -1.9751698 0
21.445166 2.2407389 -1.882259 0
22.403198 2.0554712 -1.5697997 0
22.639093 2.3239989 -1.588048 0
-4.8354716 2.910888 -1.5098841 0
18.60729 2.7356827 -1.971732 0
21.332277 2.7641721 -1.8777705 0
22.915371 2.6733479 -1.6099097 0
-4.77279 3.3485286 -1.5493944 0
18.460323 3.2988377 -1.9659712 0
18.518236 3.0455859 -1.9674346 0
21.23666 3.2515168 -1.8754421 0
25.631929 3.3896737 -1.8045998 0
-5.0563703 3.7048042 -1.5508806 0
-4.8206291 3.6100624 -1.5443012 0
18.369749 3.7518713 -1.9655997 0
21.157787 3.7423725 -1.875635 0
25.658594 3.7181027 -1.8096224 0
-5.0531363 4.2574954 -1.5143704 0
-4.7305989 4.2294216 -1.5629963 0
-4.3144107 4.2832432 -1.5037866 0
-3.5419044 4.4441519 -1.5098467 0
18.227152 4.2527885 -1.9622084 0
21.103626 4.238822 -1.8790282 0
22.12495 4.2593641 -1.5721714 0
25.732285 4.2171235 -1.8200393 0
32.807369 4.3354664 -1.7317967 0
-5.0192208 4.6317339 -1.5656593 0
-4.8571892 4.6175408 -1.5362657 0
-3.867615 4.7507195 -1.5153986 0
-3.3104708 4.6600151 -1.5187502 0
-2.8616693 4.9006472 -1.5145561 0
16.217201 4.8297005 -1.7734299 0
18.107752 4.7598543 -1.9628588 0
21.079134 4.7108569 -1.8855025 0
21.872158 4.7380681 -1.5615884 0
25.761478 4.6297479 -1.8269221 0
32.98473 4.925374 -1.7452995 0
33.054768 4.7309585 -1.7474626 0
-3.06042 5.2260284 -1.6098545 0
-2.7026958 5.1659546 -1.5557938 0
-2.4579895 5.4238567 -1.58636 0
20.973553 5.3353372 -1.8891878 0
21.021975 5.1078463 -1.8884907 0
21.845137 5.0155926 -1.5639402 0
32.90197 5.0711203 -1.7421592 0
33.084103 5.3597388 -1.7539524 0
-2.7220576 5.7176738 -1.6224099 0
-2.4212964 5.719656 -1.6444665 0
17.826469 5.8208876 -1.9659714 0
21.028141 5.5227065 -1.8979033 0
25.775047 5.9975786 -1.8471514 0
32.934227 5.7017174 -1.7491722 0
33.123466 5.9972434 -1.7616283 0
-3.0255616 6.3150249 -1.5624204 0
-2.7439799 6.1515689 -1.5876663 0
-2.3666945 6.3075032 -1.7675139 0
3.7798817 6.3952346 -1.9917928 0
4.169662 6.1759253 -1.997896 0
17.691914 6.2636533 -1.9675975 0
18.826786 6.435442 -1.736491 0
20.776249 6.3915343 -1.8975549 0
24.2187 6.3529372 -1.7474835 0
24.72328 6.2375584 -1.7796271 0
25.01301 6.2304926 -1.7991588 0
25.71888 6.1951427 -1.8465235 0
32.368668 6.3253031 -1.7259351 0
32.623055 6.1657443 -1.7374492 0
33.014301 6.083571 -1.7568134 0
-4.2667961 6.7756348 -1.5470794 0
-3.2758625 6.7556987 -1.5856732 0
-2.6681917 6.7891922 -1.5881275 0
-2.2294323 6.6618266 -1.7797213 0
-1.8442559 6.8740149 -1.8914624 0
2.3624425 6.9586186 -1.9699751 0
2.752671 6.83638 -1.9759377 0
3.2528589 6.6447396 -1.983655 0
3.5348358 6.5200477 -1.9881703 0
17.55526 6.6784673 -1.9691072 0
20.731171 6.7663736 -1.9037304 0
24.044441 6.5453558 -1.7391684 0
27.994635 6.9672837 -1.509369 0
48.86298 6.8197646 -1.7211968 0
-3.5710323 7.3454127 -1.578263 0
-3.3580966 7.2298903 -1.5402102 0
-2.7467353 7.3029404 -1.5999552 0
-2.3078344 7.2507362 -1.7062268 0
-1.8494254 7.2199659 -1.8842431 0
-1.2495164 7.0755925 -1.9261268 0
-0.74608016 7.1716719 -1.9328958 0
-0.24912649 7.2272782 -1.9386517 0
0.25479648 7.2531586 -1.9456372 0
0.74930346 7.2405057 -1.9514633 0
1.2453038 7.1859317 -1.9552048 0
1.7482151 7.1065388 -1.9620746 0
2.1105866 7.0266581 -1.9667047 0
20.665333 7.3131437 -1.9136612 0
23.99959 7.3330383 -1.7514454 0
27.972609 7.0551949 -1.509369 0
47.917538 7.1404824 -1.6901128 0
48.533112 7.076293 -1.7110525 0
-3.7853305 7.6947799 -1.5036542 0
-2.2538984 7.7195168 -1.7615198 0
-1.8322446 7.666841 -1.809219 0
20.25886 7.5927181 -1.8886067 0
20.634069 7.516387 -1.9170778 0
24.017847 7.6648798 -1.759593 0
32.35326 7.6315351 -1.7395774 0
-4.6218524 8.4289188 -1.5149114 0
-2.2361896 8.2595043 -1.7311831 0
-1.8377161 8.23211 -1.8976171 0
-4.4209509 8.6293316 -1.528052 0
-3.8400974 8.7781076 -1.5099053 0
-2.2990358 8.760478 -1.6922921 0
-1.6995531 8.5308161 -1.9972054 0
-3.9699862 9.1524591 -1.5724792 0
-2.1581585 9.2180357 -1.848807 0
-1.7509152 9.2289524 -1.9866575 0
-1.2535877 9.3278465 -1.9905467 0
-0.86457717 9.4057961 -1.9975232 0
26.86908 9.4022837 -1.9872223 0
34.932964 9.3807325 -1.8930962 0
35.253384 9.2948303 -1.9081689 0
-4.2042685 9.9292164 -1.5086364 0
-2.2635992 9.7717686 -1.7085272 0
-1.9752604 9.9930286 -1.9706753 0
26.757666 9.7353144 -1.9877247 0
-2.173187 10.267196 -1.7387555 0
-1.7175517 10.086613 -1.9796815 0
-1.237336 10.17224 -1.9826962 0
-0.74868733 10.230615 -1.9847697 0
-0.26031452 10.294483 -1.992523 0
0.15264966 10.321098 -1.9971596 0
0.89253569 10.294879 -1.9992965 0
20.346052 10.485208 -1.9983069 0
26.215841 10.418504 -1.969295 0
26.680658 10.179622 -1.9935284 0
33.391926 10.420838 -1.8307117 0
-2.1789007 10.801773 -1.738914 0
-1.9674228 10.968562 -1.9564362 0
25.908142 10.76263 -1.9584361 0
33.626053 10.608644 -1.8453659 0
-2.2230124 11.187249 -1.6727182 0
-1.7082373 11.059718 -1.9648958 0
-1.2449176 11.140861 -1.9683272 0
-0.74822438 11.213597 -1.9733378 0
-0.24617688 11.258432 -1.9773071 0
0.25986031 11.283056 -1.9817194 0
0.7641269 11.297491 -1.9882717 0
1.258351 11.28544 -1.9939276 0
1.7396036 11.228592 -1.9951943 0
2.1185973 11.180444 -1.9980456 0
25.682402 11.277845 -1.9580841 0
-4.5883608 11.621676 -1.5282415 0
-2.132062 11.720781 -1.7520214 0
-1.9312568 11.937723 -1.9077182 0
19.487961 11.944139 -1.9955178 0
19.647135 11.711884 -1.9969622 0
25.347198 11.742348 -1.9500655 0
33.514988 11.954995 -1.8623227 0
48.698536 11.700157 -1.747313 0
-2.1125472 12.213412 -1.7352103 0
-1.67802 12.150143 -1.9351227 0
-1.2381667 12.284062 -1.9479699 0
-0.74344724 12.36561 -1.9545646 0
-0.25049716 12.430737 -1.9617366 0
0.24941222 12.453815 -1.9653945 0
0.77058208 12.463773 -1.9703592 0
1.2577897 12.42136 -1.969919 0
1.7659091 12.410928 -1.9780055 0
2.2691381 12.367822 -1.9840704 0
2.7652128 12.296629 -1.9887395 0
3.2627788 12.200796 -1.9928305 0
3.6830318 12.110453 -1.9972858 0
19.274315 12.226818 -1.9928063 0
24.907774 12.389842 -1.9419506 0
25.126404 12.113531 -1.9471822 0
32.888206 12.422061 -1.839923 0
33.247211 12.205637 -1.8536141 0
48.31662 12.005513 -1.7368782 0
-2.5438507 12.731331 -1.5882012 0
-2.1749952 12.746089 -1.6573095 0
-1.992468 12.947464 -1.8343015 0
18.876768 12.850108 -1.9936585 0
19.047852 12.583515 -1.9930776 0
24.47184 12.936247 -1.9322544 0
24.657391 12.695691 -1.9359932 0
32.296558 12.886348 -1.8198259 0
32.73156 12.709508 -1.837662 0
-2.1637819 13.285548 -1.6469421 0
-1.8777395 13.302739 -1.8813818 0
4.4247222 13.480193 -1.9872065 0
4.7379017 13.378132 -1.9879484 0
5.2360172 13.212093 -1.9906856 0
5.6194453 13.104941 -1.9972267 0
18.402243 13.376578 -1.9861922 0
18.609661 13.135811 -1.9886849 0
24.266445 13.26193 -1.9304206 0
32.478699 13.076132 -1.8323866 0
33.013054 13.406278 -1.8648348 0
-2.0669873 13.924191 -1.7225013 0
-1.6267719 13.668607 -1.9278259 0
-1.2494218 13.767147 -1.9361253 0
-0.76739007 13.837369 -1.9410472 0
-0.25250721 13.888 -1.9455007 0
0.26561508 13.92078 -1.9501399 0
0.75648588 13.966004 -1.9590005 0
1.2580168 13.9628 -1.9636397 0
1.7773004 13.931255 -1.9671191 0
2.2387972 13.882008 -1.9695271 0
2.7396944 13.825778 -1.9742169 0
3.2588284 13.741555 -1.97816 0
3.7470369 13.652299 -1.9829888 0
4.1719327 13.549545 -1.9857837 0
8.4264097 13.934414 -1.9935387 0
8.5457487 13.887311 -1.99622 0
17.932627 13.939998 -1.9829674 0
18.150578 13.668623 -1.9837145 0
23.851191 13.809871 -1.9238834 0
24.044397 13.576948 -1.9275107 0
31.90477 13.884473 -1.8210121 0
32.319996 13.710702 -1.8374108 0
32.800236 13.614254 -1.8586593 0
33.011436 13.526574 -1.8671376 0
-2.0162239 14.178299 -1.7524812 0
-1.9394743 14.283161 -1.7639369 0
7.3680449 14.451861 -1.9858854 0
7.7581043 14.333545 -1.995378 0
8.1794338 14.110864 -1.9967682 0
16.9587 14.445629 -1.9447932 0
17.24374 14.41507 -1.9621372 0
17.682478 14.234525 -1.9818345 0
23.20277 14.308383 -1.902845 0
23.610521 14.110965 -1.9200469 0
31.301208 14.322067 -1.8014733 0
31.715582 14.155246 -1.8176627 0
-2.1227353 14.752992 -1.5615158 0
-1.9109772 14.693468 -1.8134158 0
5.9452152 14.991547 -1.9742833 0
6.2511172 14.888494 -1.9768538 0
6.7665529 14.699969 -1.9811523 0
7.133306 14.541745 -1.9828631 0
11.853171 14.892143 -1.9954783 0
12.142157 14.688843 -1.9979988 0
16.840811 14.708965 -1.9520563 0
22.925949 14.93224 -1.9098393 0
23.080359 14.679912 -1.9093742 0
30.980925 14.990341 -1.8011943 0
31.163448 14.722661 -1.8037903 0
47.373466 14.686859 -1.7303171 0
-2.0439913 15.216451 -1.6086234 0
-1.8295189 15.37192 -1.8555628 0
4.268014 15.44549 -1.9617062 0
4.7456408 15.31838 -1.9632177 0
5.248199 15.184992 -1.9668826 0
5.7040358 15.055898 -1.9709928 0
10.939426 15.478447 -1.9870861 0
11.238652 15.294263 -1.9898455 0
11.585361 15.073794 -1.9931488 0
16.31423 15.394991 -1.958285 0
16.755932 15.235804 -1.9771903 0
22.710062 15.240166 -1.9091415 0
30.322601 15.291266 -1.7772593 0
30.793915 15.133594 -1.7956815 0
46.808964 15.223084 -1.7171948 0
47.235592 15.124422 -1.730317 0
47.698967 15.025894 -1.7446957 0
-1.6606585 15.594586 -1.8635404 0
-1.2439568 15.579717 -1.9132025 0
-0.76051527 15.631854 -1.915786 0
-0.25969967 15.678769 -1.919553 0
0.25065351 15.727748 -1.9255358 0
0.74099207 15.756 -1.9308977 0
1.2337257 15.735278 -1.9321388 0
1.7470825 15.702008 -1.9340442 0
2.2689538 15.707652 -1.9428409 0
2.7608752 15.666609 -1.9474236 0
3.2461975 15.626808 -1.9538581 0
3.7368922 15.563326 -1.9594154 0
4.0019159 15.512297 -1.9611216 0
10.257886 15.880544 -1.9820455 0
10.685606 15.627096 -1.9847342 0
16.253143 15.72522 -1.9743681 0
22.377462 15.830997 -1.9134201 0
22.544847 15.585995 -1.9131876 0
30.229376 15.793986 -1.7849491 0
30.58428 15.503149 -1.7944953 0
-1.9108362 16.347351 -1.7248242 0
9.3092337 16.388128 -1.9759538 0
9.745266 16.154762 -1.9779574 0
10.004079 16.016817 -1.9797691 0
14.88373 16.442606 -1.9361649 0
15.285054 16.370657 -1.9553099 0
15.786913 16.343317 -1.9838041 0
16.050488 16.312597 -1.9979582 0
21.927935 16.444908 -1.9132806 0
22.15613 16.194235 -1.9156986 0
29.385174 16.404411 -1.7612096 0
29.764917 16.199959 -1.773491 0
46.123749 16.428902 -1.7081209 0
46.511951 16.410603 -1.7206846 0
-1.8316275 16.791765 -1.7702942 0
7.9546428 16.982426 -1.9659714 0
8.2357864 16.835556 -1.9648842 0
8.7790833 16.690544 -1.9771209 0
9.0522041 16.523499 -1.9751699 0
14.69461 16.74835 -1.9451418 0
21.437195 16.919146 -1.9063048 0
21.680977 16.68257 -1.9096068 0
28.469973 16.952028 -1.7339948 0
28.806589 16.910957 -1.7480907 0
29.210758 16.665659 -1.7599952 0
-1.8209112 17.197016 -1.8125236 0
6.4789109 17.488117 -1.9551004 0
6.7514758 17.397348 -1.9564012 0
7.2445855 17.234776 -1.9599786 0
7.7146668 17.081352 -1.964926 0
14.403923 17.471943 -1.9768665 0
14.621203 17.297106 -1.9773313 0
19.79398 17.490837 -1.8437333 0
20.256561 17.461452 -1.866753 0
20.742384 17.381046 -1.8890053 0
21.207453 17.166616 -1.9045843 0
26.858517 17.484533 -1.6770536 0
27.17684 17.455509 -1.6902419 0
27.736689 17.395079 -1.7133222 0
28.32472 17.219793 -1.7347276 0
28.530432 17.347397 -1.7473929 0
-1.7299107 17.856094 -1.8360713 0
-1.2349102 17.975582 -1.8887596 0
-0.96091878 17.995504 -1.8890384 0
4.3954468 17.980894 -1.9404664 0
4.7479658 17.904732 -1.9419066 0
5.2519965 17.799816 -1.9455765 0
5.75454 17.680023 -1.9492003 0
6.233047 17.566727 -1.9541074 0
13.891195 17.893658 -1.9776684 0
14.173207 17.631136 -1.9749492 0
15.221039 17.77182 -1.6328596 0
16.850643 17.868719 -1.7141119 0
17.264925 17.69771 -1.7255425 0
17.772257 17.664829 -1.7488645 0
18.237663 17.629093 -1.7703636 0
18.746658 17.570061 -1.7932994 0
19.225157 17.524258 -1.8156912 0
19.507252 17.508547 -1.8295728 0
23.751114 17.866684 -1.5551107 0
24.197689 17.714291 -1.5691366 0
24.784031 17.646194 -1.5919551 0
25.31221 17.614227 -1.6136222 0
25.766691 17.578859 -1.632184 0
26.243708 17.550608 -1.6520716 0
26.63092 17.514935 -1.6679469 0
-1.5093411 18.001736 -1.8936375 0
-0.71113163 18.045464 -1.8931149 0
-0.23392861 18.09684 -1.8972147 0
0.2727783 18.152876 -1.9031614 0
0.77323121 18.208384 -1.9105017 0
1.2588245 18.298159 -1.9227487 0
1.7414927 18.259922 -1.9229058 0
2.2581406 18.255354 -1.9283412 0
2.7258976 18.20089 -1.9293166 0
3.2301884 18.165215 -1.9341948 0
3.7458501 18.108809 -1.9386082 0
4.1427855 18.040714 -1.9404663 0
12.866373 18.440313 -1.9630088 0
13.240104 18.245977 -1.9681511 0
13.638296 18.079521 -1.977128 0
14.406675 18.430441 -1.6324409 0
14.848269 18.114149 -1.6344872 0
15.420006 18.286896 -1.6693188 0
15.76585 18.122023 -1.6762947 0
16.226339 18.192268 -1.7012768 0
16.607836 18.108543 -1.7148235 0
23.301447 18.152306 -1.5454807 0
23.506573 18.021076 -1.5497723 0
-1.8199387 18.832319 -1.6510785 0
11.96365 18.95727 -1.956995 0
12.269476 18.793465 -1.9594353 0
12.625878 18.579311 -1.9610914 0
14.425644 18.810265 -1.6542515 0
14.722723 18.566143 -1.6535772 0
38.940784 18.671694 -1.5064018 0
39.419495 18.684639 -1.521688 0
39.868603 18.664742 -1.5355779 0
40.446346 18.787878 -1.5556799 0
40.827934 18.810398 -1.5681041 0
41.195919 18.823181 -1.57997 0
41.794559 18.945755 -1.6007701 0
42.196224 18.969269 -1.6138923 0
42.547741 18.966749 -1.6250601 0
-1.7664044 19.229578 -1.6852434 0
11.237179 19.360411 -1.9542931 0
11.68818 19.102854 -1.9551275 0
14.40166 19.01594 -1.6646686 0
43.130768 19.072178 -1.6451622 0
43.534245 19.088335 -1.6582845 0
44.004642 19.129877 -1.6739194 0
-1.6898161 19.760422 -1.7309132 0
10.287354 19.846771 -1.9515915 0
10.749359 19.617294 -1.9528987 0
-1.6439134 20.32406 -1.7797203 0
8.6624117 20.425627 -1.9368795 0
9.3933115 20.458855 -1.965362 0
9.7619476 20.26462 -1.9637496 0
10.032888 20.030554 -1.9557748 0
-1.617064 20.793873 -1.8205091 0
7.3566799 20.932312 -1.9369493 0
7.7402039 20.878859 -1.9439715 0
8.2593527 20.700005 -1.9457035 0
8.9242611 20.509392 -1.9526372 0
9.1188326 20.524899 -1.9607428 0
-1.5478687 21.202667 -1.85572 0
-1.4660056 21.472126 -1.8787292 0
-0.69842553 21.438063 -1.8723959 0
5.3026028 21.446489 -1.9286404 0
5.7617922 21.317474 -1.9277978 0
6.2659926 21.2169 -1.9313214 0
6.7490497 21.16503 -1.9393896 0
7.1110663 21.061188 -1.9406098 0
-1.7377973 21.637579 -1.5145526 0
-1.2023108 21.526291 -1.882066 0
-0.93601471 21.561577 -1.8839585 0
-0.24753387 21.536083 -1.8801236 0
0.25656205 21.632318 -1.8885404 0
0.76237851 21.684994 -1.8941993 0
1.2723812 21.739515 -1.901041 0
1.7448125 21.707254 -1.9010847 0
2.2550285 21.685556 -1.903307 0
2.768713 21.695255 -1.9093083 0
3.250881 21.700788 -1.9155835 0
3.7300384 21.669214 -1.9195181 0
4.2284718 21.617479 -1.9229605 0
4.7362328 21.567932 -1.9277357 0
5.038228 21.511784 -1.9287566 0
-1.7093496 22.108126 -1.5471985 0
16.443829 22.351234 -1.9369978 0
16.510418 22.227619 -1.9328122 0
15.9084 22.929968 -1.9481587 0
16.248867 22.739832 -1.9510287 0
15.708195 23.252779 -1.9589013 0
14.915188 23.932013 -1.9685277 0
15.28477 23.713869 -1.9695042 0
15.532451 23.536119 -1.9685277 0
-1.6271374 24.338337 -1.7023369 0
14.752532 24.004524 -1.9668536 0
13.278199 24.92942 -1.9717364 0
-1.5588771 25.054508 -1.7520036 0
-1.4983777 25.369987 -1.7737676 0
11.849898 25.462578 -1.960529 0
12.230724 25.356125 -1.9652258 0
12.572852 25.174438 -1.9643425 0
13.649856 25.157927 -1.9981045 0
-1.4525589 25.924192 -1.8122731 0
10.412358 25.950974 -1.9519256 0
10.756531 25.771074 -1.9494343 0
11.23881 25.686523 -1.9572271 0
11.639917 25.731886 -1.9715273 0
-1.3974249 26.474665 -1.8504997 0
10.216239 26.04232 -1.9528093 0
24.30998 26.493729 -1.8818965 0
5.5017357 26.941086 -1.9194192 0
6.4386139 26.814745 -1.9249996 0
22.312771 26.699242 -1.8210297 0
22.740461 26.537237 -1.829037 0
23.223297 26.519201 -1.8448774 0
23.587914 26.521605 -1.8576124 0
24.109095 26.523075 -1.8759301 0
-1.1899824 27.383152 -1.9132805 0
0.28635633 27.402306 -1.9129086 0
0.72095829 27.253325 -1.9030961 0
1.4333069 27.423769 -1.9169079 0
1.6809973 27.313757 -1.9102113 0
2.3767352 27.450186 -1.9233254 0
2.7589645 27.407431 -1.9228606 0
3.2703846 27.355127 -1.9231396 0
3.8012891 27.319052 -1.9253981 0
4.2552614 27.261713 -1.9260601 0
4.7424192 27.315544 -1.9353237 0
5.2436209 27.182459 -1.9324869 0
5.8145804 27.177063 -1.9400671 0
6.2421131 27.109091 -1.9419086 0
6.8005419 27.229519 -1.9592083 0
7.0740042 27.114193 -1.956111 0
39.434513 27.047699 -1.668196 0
39.849892 27.066578 -1.6805505 0
40.250389 27.063053 -1.6920673 0
40.712284 27.105865 -1.7063062 0
41.324409 27.155022 -1.7250822 0
41.722412 27.141748 -1.7364594 0
42.008968 27.140652 -1.7448351 0
42.81015 27.194191 -1.7694044 0
-1.2119054 27.893766 -1.9489959 0
0.21556768 27.549839 -1.9231859 0
0.72901469 27.519217 -1.9216514 0
1.1815319 27.540152 -1.9242184 0
1.7528822 27.625439 -1.9323101 0
2.1237257 27.520279 -1.9267668 0
23.431538 29.483467 -1.9711816 0
19.751925 29.913 -1.8760974 0
20.261404 29.778183 -1.8850888 0
20.759438 29.716211 -1.8972307 0
21.272127 29.661623 -1.9104193 0
21.750124 29.55257 -1.9205203 0
22.167898 29.54092 -1.9330809 0
37.337864 29.907431 -1.6688939 0
37.795731 29.983891 -1.683063 0
-1.3969826 30.358376 -1.5901757 0
18.816381 30.292202 -1.8663839 0
19.309113 30.247778 -1.878163 0
19.540791 30.195553 -1.8824196 0
35.296608 30.298203 -1.6227336 0
36.327286 30.122276 -1.6462791 0
36.561184 30.027353 -1.650467 0
39.257233 30.073616 -1.725245 0
-1.2206866 30.725668 -1.6090165 0
17.705328 30.791712 -1.8589731 0
18.312637 30.848757 -1.8776047 0
18.631554 30.72982 -1.8808496 0
35.19249 30.679407 -1.6286898 0
17.398676 31.144846 -1.8671374 0
34.95969 31.341158 -1.6379031 0
35.137432 31.207933 -1.6394387 0
17.229845 31.745548 -1.8904585 0
16.747604 32.141731 -1.8969167 0
17.00778 32.040119 -1.8985389 0
16.479355 32.981796 -1.9297315 0
16.749817 32.88781 -1.9317201 0
15.72196 33.110809 -1.918427 0
16.142874 33.197517 -1.9320866 0
16.620018 33.261845 -1.9461648 0
5.9646854 33.904285 -1.801613 0
6.9366913 33.979805 -1.815011 0
15.453249 33.738636 -1.942292 0
15.73167 33.799137 -1.9512938 0
3.9344454 34.058655 -1.7942859 0
4.9240904 34.179947 -1.8072653 0
5.9303308 34.340076 -1.8238034 0
6.8940639 34.314487 -1.8317585 0
8.8443851 34.334679 -1.8556237 0
9.8526583 34.260674 -1.865777 0
10.811501 34.385056 -1.886502 0
11.809766 34.378414 -1.9025167 0
12.764571 34.376534 -1.9192642 0
13.737553 34.365341 -1.9370584 0
14.932002 34.26601 -1.9563879 0
15.303495 34.107811 -1.9566845 0
3.9168887 34.820511 -1.8338519 0
4.7976561 34.849792 -1.8411093 0
5.848001 34.838264 -1.84882 0
6.830574 34.82185 -1.8571937 0
7.7429705 34.644772 -1.8579265 0
10.751722 34.757305 -1.9041914 0
11.74802 34.73703 -1.9192641 0
12.74111 34.800232 -1.9396752 0
13.723162 34.802933 -1.9580975 0
14.716263 34.79287 -1.9773048 0
27.87281 34.936573 -1.5590303 0
28.206648 34.91444 -1.565731 0
28.745352 34.911835 -1.5775503 0
29.258049 34.875557 -1.5880202 0
29.985811 34.857201 -1.6039808 0
30.323938 34.812817 -1.6105419 0
30.763664 34.772675 -1.6196159 0
31.306318 34.732925 -1.6312025 0
32.365463 34.812004 -1.6582146 0
-0.11252984 35.491322 -1.8575078 0
2.2074218 35.478817 -1.8604386 0
3.7932351 35.213844 -1.853635 0
5.7394099 35.170071 -1.865044 0
6.7383423 35.228329 -1.8771861 0
7.7153997 35.311501 -1.8917354 0
8.7683506 35.145203 -1.8958176 0
10.76761 35.195423 -1.9263818 0
11.747831 35.255405 -1.9450134 0
12.750186 35.338879 -1.9663666 0
13.684335 35.172115 -1.9753683 0
-0.0010128304 35.551414 -1.8606478 0
0.11077083 35.579205 -1.8621132 0
2.1190355 35.808334 -1.8773955 0
3.6660995 35.60685 -1.873418 0
4.6744585 35.561073 -1.8771861 0
5.699698 35.629673 -1.8884907 0
7.6931605 35.980446 -1.925754 0
8.7451572 35.753677 -1.9264865 0
10.785921 35.636616 -1.9487817 0
11.765973 35.682846 -1.9665759 0
12.741143 35.660439 -1.9820675 0
0.22729327 36.30167 -1.9000044 0
5.6776071 36.219593 -1.9188454 0
7.6517854 36.344486 -1.9439669 0
8.7020426 36.304615 -1.9540151 0
9.6988392 36.24752 -1.963959 0
10.770493 36.17712 -1.9756824 0
11.771565 36.07618 -1.9862542 0
22.210255 36.857128 -1.5010273 0
21.698555 37.295784 -1.5051106 0
20.941818 37.99229 -1.513242 0
21.095415 37.849964 -1.5114973 0
20.431955 38.454601 -1.5189656 0
20.687893 38.220665 -1.5159992 0
19.924593 38.931103 -1.5255269 0
20.167356 38.673782 -1.5214436 0
19.393227 39.382618 -1.5312967 0
19.706358 39.103058 -1.5274347 0
18.339895 39.77528 -1.5278534 0
18.870329 39.848236 -1.5379976 0
19.123348 39.588463 -1.5336235 0
18.410009 40.149639 -1.540743 0
18.369379 41.404636 -1.5801095 0
18.598381 42.260574 -1.6106815 0
18.119301 42.783043 -1.6208024 0
18.614288 42.6595 -1.6236641 0
17.939857 43.28088 -1.6344131 0
18.15398 43.429905 -1.642091 0
18.551786 43.252777 -1.641812 0
15.808627 48.38805 -1.7759656 0
16.231514 48.410305 -1.7813401 0
15.652707 48.913391 -1.7917401 0
15.546046 49.110954 -1.7971845 0
-0.58777887 49.8703 -1.7399492 0
-0.35648674 50.396126 -1.7582366 0
14.663477 50.618938 -1.838645 0
14.680418 51.308769 -1.8619579 0
14.650091 51.782894 -1.8775929 0
14.657963 52.407742 -1.8986722 0
14.713795 53.251099 -1.927569 0
7.0120511 85.756836 -1.5010465 0
38.649826 -76.784355 -1.4996504 0
38.111851 -76.311417 -1.488062 0
36.797905 -75.73703 -1.4689341 0
37.195919 -75.662804 -1.470819 0
35.261246 -74.633003 -1.4399631 0
34.249878 -74.160812 -1.4250239 0
34.710121 -74.235687 -1.4295964 0
33.742023 -73.668037 -1.4135052 0
31.790117 -72.321541 -1.3781117 0
32.062027 -72.354538 -1.3805552 0
12.931843 -56.317692 -1.0077717 0
13.159475 -56.494919 -1.0116811 0
42.575226 -41.574543 -1.0378597 0
42.572594 -41.324986 -1.0347881 0
26.534706 -33.206799 -1.4826703 0
26.257526 -32.660488 -1.4617305 0
26.221748 -32.406876 -1.4540526 0
24.302128 -29.745403 -1.3396521 0
24.803814 -29.540154 -1.3453058 0
24.793329 -29.339914 -1.3397219 0
24.49004 -28.711121 -1.3161298 0
26.499582 -28.549322 -1.3585677 0
26.640491 -28.510952 -1.3609407 0
26.689383 -28.393913 -1.359126 0
23.990021 -27.51125 -1.2729939 0
24.177883 -27.893528 -1.2873727 0
23.971998 -27.325205 -1.2676893 0
24.180433 -27.215677 -1.2696437 0
23.212755 -25.242687 -1.1958662 0
0.14286749 -22.62071 -1.183002 0
0.20705576 -21.933126 -1.1469947 0
22.817072 -21.729631 -1.0986362 0
1.0116959 -21.416021 -1.4958578 0
22.747423 -21.262156 -1.0856535 0
24.68103 -21.003622 -1.1300458 0
0.61605048 -20.776527 -1.0868084 0
22.207449 -20.504265 -1.0538251 0
23.315498 -20.795345 -1.089318 0
24.640083 -20.835608 -1.1251599 0
25.522608 -20.519293 -1.1419114 0
22.038176 -20.469364 -1.04866 0
23.227213 -20.26762 -1.0748113 0
23.673958 -20.274635 -1.0867703 0
24.816368 -20.266918 -1.1172028 0
25.03237 -20.248402 -1.1226469 0
23.131872 -19.930243 -1.0645741 0
20.648943 -19.043373 -1.4695936 0
28.089666 -19.27578 -1.1879789 0
20.708048 -18.979084 -1.4695936 0
19.354958 -17.575832 -1.3676434 0
0.22230729 -17.045595 -1.4872257 0
19.568581 -17.113983 -1.3598975 0
-0.14337187 -16.736237 -1.2646253 0
0.028621135 -16.874144 -1.3745886 0
19.421585 -16.575386 -1.3356135 0
20.836679 -16.916946 -1.4040691 0
20.473534 -16.304035 -1.3691087 0
-1.2353851 -15.19804 -1.1245326 0
19.833981 -15.050766 -1.302328 0
20.272364 -15.187996 -1.3250068 0
20.767632 -15.133555 -1.3441967 0
-2.0687811 -14.541973 -1.023746 0
-0.91828614 -14.959454 -1.044673 0
18.609112 -14.536549 -1.235024 0
20.349051 -14.948449 -1.3207502 0
20.889923 -14.95103 -1.3437779 0
21.939285 -14.60846 -1.3788431 0
-2.418046 -14.258199 -1.1198403 0
-1.7292925 -14.275229 -1.1029691 0
-1.3119164 -14.065296 -1.2316849 0
-0.72026289 -14.239292 -1.2431895 0
18.700638 -14.421881 -1.2351286 0
20.478378 -14.006426 -1.2977223 0
21.404871 -14.254515 -1.3452435 0
21.674261 -14.1432 -1.3538265 0
-2.027621 -13.963985 -1.2302905 0
-1.9645921 -13.981022 -1.2309878 0
-1.4111094 -13.746221 -1.2047539 0
-0.71415532 -13.638313 -1.4304273 0
16.593607 -13.943866 -1.1333874 0
19.600927 -13.708879 -1.2510386 0
20.250757 -13.935733 -1.2857897 0
21.220236 -13.690648 -1.3209594 0
21.836805 -13.816525 -1.3517331 0
22.037098 -13.753048 -1.3588507 0
-2.0864012 -13.078279 -1.154465 0
-1.9652517 -13.09105 -1.153942 0
-1.3671325 -13.471251 -1.4181027 0
22.056259 -13.060379 -1.3408471 0
-2.8608227 -12.536941 -1.1208228 0
-1.9350533 -12.81971 -1.3576157 0
21.600111 -12.881858 -1.3155166 0
22.178463 -12.901191 -1.3421557 0
22.528198 -12.73114 -1.3536172 0
-2.912962 -12.159675 -1.0897373 0
-1.8723278 -12.406812 -1.3137137 0
21.87504 -12.498064 -1.3178192 0
22.246988 -12.391508 -1.3320547 0
22.70792 -12.465957 -1.3550826 0
-3.0094235 -11.985069 -1.0768963 0
-2.0843947 -11.708743 -1.2449341 0
-1.695219 -11.589203 -1.4322085 0
-1.0147669 -11.682134 -1.3306266 0
-0.92379069 -11.588914 -1.387136 0
22.237436 -11.730197 -1.3150979 0
23.08519 -11.814167 -1.3565478 0
28.566269 -11.6733 -1.0759516 0
-3.209717 -11.287203 -1.0224613 0
-1.8644257 -11.346778 -1.2429552 0
-1.3459628 -11.426031 -1.4067378 0
22.29549 -11.498151 -1.3121672 0
26.102211 -11.132915 -1.4846665 0
28.681736 -11.305125 -1.0749044 0
-1.6069552 -10.719098 -1.3249635 0
-1.4255408 -10.720772 -1.3220387 0
27.818672 -10.66781 -1.0387486 0
28.824898 -10.592242 -1.0707165 0
-2.9311607 -10.457563 -1.1364335 0
-2.2134845 -10.113622 -1.0831537 0
-1.6805394 -10.259376 -1.322194 0
-1.4855672 -10.099623 -1.427916 0
20.933355 -10.222976 -1.218381 0
21.154932 -10.115982 -1.226406 0
28.479843 -10.313218 -1.0560588 0
-2.6503425 -9.7148218 -1.1192323 0
-2.3331027 -9.6554365 -1.101211 0
-1.9410987 -9.6966562 -1.0771608 0
-1.2027113 -9.7828407 -1.3396577 0
-0.97055835 -9.9741373 -1.2245431 0
21.224833 -9.8807058 -1.224452 0
-2.5169177 -9.3653545 -1.1848137 0
-2.2813272 -9.1806164 -1.1741214 0
-1.7728726 -9.3164749 -1.2965314 0
-1.3343968 -9.4024973 -1.4965563 0
-3.855799 -8.8193102 -1.1005788 0
-2.1054907 -8.7461119 -1.3100437 0
-1.8353409 -8.6842527 -1.2774392 0
21.477011 -8.5071335 -1.2081232 0
21.804455 -8.9131317 -1.2319884 0
22.026848 -8.8857775 -1.2422463 0
22.757849 -8.5269642 -1.2711357 0
-3.9171765 -8.2073793 -1.2082986 0
-2.1314623 -8.3060074 -1.1984475 0
-1.8466858 -8.2041483 -1.4746203 0
-1.4258975 -8.1776381 -1.4118812 0
20.912457 -8.359313 -1.1777683 0
21.455025 -8.4213266 -1.2054018 0
21.840065 -8.3785934 -1.2234054 0
22.37981 -8.4654093 -1.2514575 0
22.784246 -8.4561729 -1.2711357 0
23.218452 -8.2509747 -1.2889299 0
-4.0648875 -7.549283 -1.1225604 0
-3.862113 -7.7053246 -1.250463 0
-2.8876109 -7.6254115 -1.2838875 0
-2.1634295 -7.8259759 -1.1747264 0
-1.8650064 -7.7489901 -1.3695157 0
-1.4416776 -7.9965725 -1.351809 0
22.916883 -7.9446578 -1.2686236 0
23.34223 -7.7672563 -1.2867528 0
-4.0671325 -7.2968411 -1.1806644 0
-3.8561966 -7.3943219 -1.3924416 0
-3.2441664 -7.0751176 -1.3645881 0
-2.7707367 -7.2438536 -1.2013564 0
-2.1927326 -7.1432724 -1.1758139 0
-1.8555951 -7.171639 -1.2816764 0
23.2337 -7.4492679 -1.27616 0
-5.1369171 -6.8078403 -1.0412517 0
-4.5193195 -6.5640826 -1.2546043 0
-4.2662911 -6.5669398 -1.1874157 0
-3.6196666 -6.5704494 -1.4488127 0
-3.15855 -6.7576432 -1.2598996 0
-2.7318568 -6.6815343 -1.235649 0
-2.2996199 -6.8301349 -1.3554279 0
-1.9180174 -6.8228555 -1.4203502 0
20.413521 -6.6404986 -1.497718 0
-4.2825818 -6.2369871 -1.2092605 0
-3.5587773 -6.2321701 -1.3856549 0
-3.1877697 -6.1744142 -1.3679307 0
-2.7265022 -6.3749442 -1.3410645 0
-1.7190696 -6.2860942 -1.4740092 0
-0.95328063 -6.4712143 -1.3801178 0
19.463888 -6.0493951 -1.1844151 0
-5.2849431 -5.7320633 -1.3662639 0
-4.674335 -5.8005409 -1.1508069 0
-4.3431702 -5.7521005 -1.1825591 0
-3.8802509 -5.7520022 -1.2900243 0
-3.1699567 -5.687439 -1.4522908 0
-2.7214234 -5.7103267 -1.4495846 0
-2.2069893 -5.8963037 -1.4423862 0
19.423307 -5.7458386 -1.2478306 0
-4.6233582 -5.2186985 -1.1837338 0
-4.3171973 -5.2394137 -1.2424631 0
-3.7899649 -5.213768 -1.3040209 0
-3.2118878 -5.2525997 -1.2331274 0
-2.6371884 -5.3890152 -1.4841907 0
-2.2828691 -5.2649531 -1.4599422 0
15.090405 -5.3641901 -1.2723675 0
19.342386 -5.2521472 -1.2229425 0
-4.3035145 -4.7211614 -1.2794117 0
-3.7154427 -4.6631131 -1.3436927 0
-3.2739501 -4.7878857 -1.360642 0
-2.6204669 -4.7321343 -1.4402612 0
-2.1277142 -4.7784925 -1.3983883 0
19.268017 -4.7867703 -1.2113861 0
-4.876348 -4.1845503 -1.3555843 0
-4.2719927 -4.2182631 -1.1786722 0
-3.6658609 -4.1897893 -1.4701246 0
-3.2699795 -4.3546939 -1.4491595 0
-2.7579601 -4.2499833 -1.3229688 0
19.150972 -4.1114588 -1.15216 0
-4.5461783 -3.7449157 -1.2054121 0
-4.3205643 -3.7642751 -1.2030092 0
-3.718468 -3.793457 -1.3756496 0
-3.2808828 -3.9044614 -1.3634226 0
-2.9738069 -3.8232448 -1.2939258 0
19.09602 -3.7373817 -1.1758778 0
-4.3745842 -3.2822526 -1.1434878 0
-3.9955835 -3.4989121 -1.3121843 0
14.563686 -3.3374362 -1.1576307 0
18.982763 -3.0739346 -1.229298 0
19.029303 -3.3243978 -1.1633404 0
-5.1086102 -2.9567666 -1.1379849 0
-4.8853555 -2.8486178 -1.089901 0
-4.4297767 -2.5442402 -1.1372499 0
18.933769 -2.762341 -1.2058078 0
-4.5974212 -2.4106009 -1.051841 0
-4.3902669 -2.3164418 -1.1221112 0
-3.861237 -2.1230264 -1.1677916 0
18.861113 -2.2420135 -1.3248498 0
19.124714 -2.0077882 -1.0052691 0
-4.5851731 -1.7533507 -1.0632925 0
-4.4202433 -1.9310559 -1.1663574 0
-3.5549562 -1.7998405 -1.0598456 0
-3.3704665 -1.8434936 -1.0196236 0
18.962946 -1.9572277 -1.3296978 0
19.212379 -1.7696189 -1.2226385 0
19.684109 -1.6375866 -1.0326512 0
-5.1044164 -1.2497252 -1.2021384 0
-4.6494985 -1.152256 -1.0999433 0
-4.2152519 -1.1593757 -1.0780039 0
-3.8589244 -1.1072845 -1.0667546 0
19.404097 -1.4296232 -1.357182 0
19.730629 -1.2544872 -1.2397346 0
20.070162 -1.1397142 -1.0510107 0
-4.5664816 -0.93144757 -1.0742836 0
-4.3691568 -0.74361157 -1.0761093 0
-3.8830128 -0.65533066 -1.045857 0
19.895657 -0.85081702 -1.3891582 0
20.24597 -0.76249379 -1.1764547 0
20.574814 -0.56476736 -1.0761669 0
-5.4161119 -0.092296973 -1.4486135 0
-4.6304941 -0.11220443 -1.1571854 0
-4.3765306 -0.20724206 -1.091669 0
20.332924 -0.33299193 -1.4186606 0
20.763535 -0.23208855 -1.1755127 0
21.039255 -0.057985228 -1.1001018 0
-4.6016431 0.27181649 -1.1635925 0
-4.400166 0.15148044 -1.0749508 0
-3.9240456 0.34968066 -1.0500067 0
20.79323 0.20402336 -1.4507353 0
21.266314 0.26203245 -1.1529536 0
-4.6111498 0.60608906 -1.1347698 0
-4.1642361 0.79554158 -1.111957 0
-3.8382716 0.76806927 -1.0413219 0
21.254747 0.73191231 -1.48382 0
21.735371 0.74773151 -1.1372753 0
-4.6540937 1.191143 -1.0713433 0
-4.1601033 1.3071249 -1.0857832 0
-3.7475929 1.2097198 -1.046719 0
21.986061 1.0263128 -1.1509724 0
22.200594 1.2785978 -1.1629049 0
-4.6506824 1.7832564 -1.151732 0
-4.2315636 1.7400017 -1.1974323 0
-3.6505165 1.7816907 -1.0637597 0
-3.4834054 1.9785515 -1.060537 0
22.418562 1.5681236 -1.1752563 0
22.631191 1.8271778 -1.1873982 0
-4.7927933 2.1665452 -1.2103434 0
-4.1706653 2.1606445 -1.1820239 0
-3.8776617 2.3463957 -1.1552973 0
-3.2036288 2.4951093 -1.0826566 0
22.768209 2.2626655 -1.1966094 0
-5.0930405 2.7929225 -1.0158418 0
-4.7264576 2.7907867 -1.1584654 0
-3.8028502 2.6225212 -1.1707324 0
-3.2633522 2.569155 -1.1076652 0
22.964869 2.642571 -1.2089605 0
-5.517808 3.1669645 -1.4576827 0
-5.0071368 3.4403908 -1.0627269 0
-4.7600946 3.3004174 -1.2023538 0
-4.1525645 3.1319132 -1.3097497 0
-3.8703959 3.1937845 -1.283438 0
-3.2452116 3.2872603 -1.2153615 0
-2.9791989 3.4331133 -1.1513165 0
-5.132504 3.8273764 -1.1114386 0
-4.7934928 3.7292945 -1.1985387 0
-4.2360997 3.8660188 -1.444239 0
-3.7796872 3.9268751 -1.3967005 0
-3.1862137 3.6939073 -1.2496632 0
-5.1340761 4.2792597 -1.1737167 0
-4.8230691 4.280117 -1.2654769 0
-4.1995492 4.2422404 -1.1509598 0
-3.7781811 4.1539702 -1.2242575 0
-3.2199368 4.241715 -1.3596299 0
-2.7889583 4.2118459 -1.3225158 0
-5.0535164 4.7651272 -1.2305279 0
-4.7455344 4.6223078 -1.2126797 0
-4.185298 4.8362908 -1.1430032 0
-3.6142294 4.6230164 -1.1976513 0
-3.2555165 4.6605983 -1.1903992 0
-2.882616 4.775032 -1.352247 0
-2.4281859 4.7904902 -1.4361612 0
16.231377 4.7752028 -1.3278345 0
21.903456 4.7439728 -1.1720264 0
-4.6990042 5.4506459 -1.0046443 0
-3.0629814 5.1574454 -1.1783328 0
-2.7878034 5.2057509 -1.2840627 0
-2.4705567 5.4346218 -1.4216884 0
21.891838 5.0260382 -1.1746283 0
-4.6800461 5.5155253 -1.00984 0
-3.2277546 5.7115631 -1.1553981 0
-2.7501297 5.6463113 -1.3241457 0
-2.4322329 5.613564 -1.3716575 0
-4.141964 6.4874926 -1.4867836 0
-3.6077793 6.2919793 -1.3141521 0
-3.2280109 6.1696796 -1.3847761 0
-2.8535819 6.2935925 -1.4587085 0
40.98312 6.4968243 -1.4473519 0
41.142612 6.3301926 -1.4519587 0
-4.5101643 6.6758709 -1.412107 0
-4.3548813 6.7225075 -1.3919274 0
-3.6996844 6.7666283 -1.253298 0
-3.1271584 6.6639333 -1.3559166 0
-2.7839367 6.7465658 -1.3231528 0
-2.4817574 6.5787396 -1.4416622 0
40.781376 6.78971 -1.4420471 0
57.222118 6.633215 -1.0046651 0
-4.8352218 7.379055 -1.2159497 0
-4.4275408 7.0284204 -1.4562137 0
-3.597013 7.0059528 -1.3801557 0
-3.1366148 7.2122006 -1.3395394 0
-2.6980655 7.2291327 -1.2850659 0
-2.3813467 7.2890143 -1.3344334 0
27.96793 7.0897226 -1.0058732 0
40.676041 7.2877512 -1.4413841 0
-5.069922 7.5880861 -1.114617 0
-4.7365956 7.7556977 -1.2450393 0
-4.3419857 7.9031572 -1.2586932 0
-3.7517505 7.7506886 -1.3059107 0
-3.1888251 7.839746 -1.2367476 0
-2.8422909 7.657824 -1.2127584 0
-2.3317258 7.703331 -1.1691653 0
40.678825 7.6769352 -1.4439317 0
-4.6390295 8.1576653 -1.2775986 0
-4.3883405 8.3536196 -1.2619816 0
-3.816452 8.2084742 -1.3726802 0
-3.3503926 8.2045593 -1.3960211 0
-2.5135503 8.4489012 -1.3885123 0
-2.3387678 8.1146517 -1.3952249 0
-4.6357894 8.5978575 -1.1846362 0
-4.4178443 8.7287436 -1.226889 0
-2.6302676 8.6656542 -1.1858292 0
-2.4258964 8.5938168 -1.293931 0
-4.6081161 9.1426592 -1.2516075 0
-4.2935114 9.2791576 -1.2376925 0
-2.5239227 9.1423998 -1.3680162 0
-2.3435106 9.1169796 -1.4833117 0
-4.521832 9.5497513 -1.1054929 0
-4.2259192 9.6558914 -1.2393783 0
-3.9538102 9.6665459 -1.1848165 0
-2.5834343 9.6084232 -1.1656516 0
-2.3970125 9.8548174 -1.273079 0
-4.4500084 10.10081 -1.3493375 0
-2.5234365 10.024731 -1.0814514 0
-2.3863678 10.198958 -1.2439617 0
-4.3271174 10.811258 -1.4239215 0
-4.5696697 11.416056 -1.2873726 0
-4.4208097 11.15863 -1.045869 0
-2.5296366 11.244778 -1.0718364 0
-2.4259326 11.296677 -1.2561753 0
-4.596457 11.744432 -1.3205081 0
-4.4713774 11.708793 -1.1288472 0
-2.537385 12.633131 -1.3492534 0
-2.1732776 12.823199 -1.3619362 0
-2.6018658 13.38404 -1.4279982 0
-2.1278458 13.174149 -1.3975456 0
-2.6968298 13.752499 -1.3443005 0
-2.3842638 13.859014 -1.226107 0
-2.6184797 14.1733 -1.3824636 0
-2.3264353 14.321175 -1.2651528 0
-2.7046113 14.759665 -1.212312 0
-2.2221322 14.830831 -1.1762929 0
-1.9748477 14.908639 -1.3115196 0
-2.8027394 15.08047 -1.0692273 0
-2.2437131 15.178218 -1.1031743 0
-1.9942217 15.252884 -1.0722966 0
-2.3318753 15.590686 -1.374969 0
-1.924963 16.436756 -1.4436479 0
-1.901989 16.928741 -1.4861797 0
15.181911 17.722462 -1.2204745 0
17.252453 17.846333 -1.2983505 0
20.053528 17.717899 -1.3998821 0
21.652079 17.76412 -1.4652672 0
24.395699 17.758993 -1.0520569 0
24.696114 17.685596 -1.0590601 0
25.183065 17.682808 -1.0728803 0
14.263474 18.358282 -1.2158689 0
14.738369 18.09042 -1.2203698 0
17.764349 18.234226 -1.331636 0
20.241678 18.274714 -1.4266782 0
21.078836 18.33378 -1.4615688 0
21.589861 18.088017 -1.4735712 0
24.770798 18.382616 -1.0755094 0
36.494511 18.481134 -1.426831 0
37.192165 18.476585 -1.4485384 0
17.807234 18.994749 -1.3619909 0
18.133978 18.988037 -1.3735049 0
18.609118 18.60582 -1.3765926 0
24.434633 18.962364 -1.0783944 0
35.151787 18.836559 -1.3909892 0
35.719612 18.719492 -1.4065893 0
36.163223 18.596506 -1.4183621 0
36.838936 18.517319 -1.4381385 0
37.7328 18.524014 -1.4661977 0
38.204914 18.614151 -1.482391 0
38.59037 18.653097 -1.4950944 0
-2.1147547 19.167412 -1.0080953 0
-1.6852193 19.082531 -1.0014484 0
17.678396 19.035702 -1.3589554 0
18.025352 19.052666 -1.3720393 0
19.94285 19.336567 -1.4532648 0
20.726639 19.300249 -1.4817357 0
24.4256 19.084579 -1.0807676 0
35.087761 19.293398 -1.3966314 0
57.897377 19.323101 -1.0645618 0
59.972183 19.499254 -1.0999204 0
60.052185 19.316877 -1.1002696 0
60.753014 19.231903 -1.1114739 0
61.687019 19.214653 -1.1269368 0
62.805874 19.346724 -1.1462741 0
63.165447 19.251665 -1.1517889 0
69.80748 19.17498 -1.2627864 0
70.164383 19.036934 -1.2681615 0
34.918682 19.625208 -1.3970965 0
35.13686 19.603783 -1.4033786 0
55.324669 19.800266 -1.0248402 0
59.436264 19.542557 -1.091264 0
-1.7301542 23.332037 -1.2236146 0
-1.6728669 23.564482 -1.2355473 0
-1.5961468 24.094227 -1.2629713 0
-1.5195036 24.635515 -1.2910234 0
-1.4729083 25.170547 -1.3188661 0
23.839849 30.364059 -1.3464226 0
51.672272 30.939688 -1.0504254 0
71.931526 30.992559 -1.3663141 0
72.083702 30.78998 -1.3673612 0
18.769812 31.473974 -1.2780195 0
51.626198 31.132833 -1.0514725 0
18.697334 31.577497 -1.2798344 0
23.287169 31.928507 -1.3783441 0
23.569231 31.797291 -1.3804846 0
24.872322 31.982357 -1.4131504 0
24.779757 32.069286 -1.4135691 0
18.660118 32.886501 -1.3187357 0
-1.8469988 33.240601 -1.1608969 0
-1.9932973 34.041077 -1.1890957 0
-1.617227 35.065498 -1.2241348 0
23.784981 35.401836 -1.4876957 0
24.206715 35.08567 -1.4868581 0
24.577877 35.032291 -1.4927212 0
45.367256 35.300774 -1.0025361 0
45.862495 35.347233 -1.0098661 0
46.049534 35.261318 -1.0115415 0
46.726929 35.341995 -1.0218035 0
47.143013 35.314476 -1.0273185 0
51.77317 35.279408 -1.09273 0
52.247688 35.249332 -1.099292 0
52.785797 35.258709 -1.1071806 0
53.139622 35.254059 -1.1122768 0
53.815445 35.471935 -1.1242142 0
54.115604 35.305801 -1.1270065 0
54.7173 35.223038 -1.1350347 0
55.236633 35.190922 -1.1423647 0
55.719021 35.143166 -1.1490315 0
56.387707 35.195026 -1.1593982 0
56.764217 35.195507 -1.164983 0
57.302437 35.156944 -1.1726272 0
57.842899 35.12759 -1.180411 0
59.10387 35.14896 -1.199469 0
59.723541 35.138134 -1.2086838 0
60.307896 35.113758 -1.2172705 0
60.663399 35.066853 -1.222227 0
-1.5266392 35.529709 -1.2401885 0
23.323423 35.782528 -1.4898828 0
23.54825 35.641529 -1.4900689 0
-1.2607921 36.355869 -1.2686666 0
22.807297 36.311203 -1.4957228 0
23.054056 36.086559 -1.4936985 0
22.408995 36.671066 -1.499073 0
22.547533 36.517998 -1.4970489 0
43.73708 37.759869 -1.0077485 0
44.837494 37.638622 -1.0210006 0
45.255543 37.628021 -1.0264807 0
45.549313 37.643368 -1.0305995 0
16.544985 55.155315 -1.0042813 0
16.545712 55.79364 -1.0149622 0
16.503187 56.298187 -1.0231997 0
16.745625 57.793865 -1.0494481 0
16.652807 58.120281 -1.0544745 0
16.638027 58.764889 -1.0652251 0
16.651276 59.521484 -1.0780003 0
0.029747527 60.390938 -1.0532876 0
-0.16035734 60.538712 -1.0558705 0
16.789688 60.711739 -1.0986638 0
16.731752 61.250278 -1.1074599 0
16.888466 62.59602 -1.1308461 0
16.787209 63.004112 -1.1372687 0
0.9465397 73.214874 -1.2772369 0
1.3005223 73.741356 -1.2865217 0
3.2543612 82.425262 -1.4390208 0
3.7394285 82.138458 -1.4343784 0
4.2689791 82.252792 -1.4368217 0
4.7794676 82.238724 -1.4370661 0
5.1694746 82.357491 -1.4395443 0
2.2334924 82.753288 -1.4441518 0
2.742681 82.617935 -1.4420574 0
5.4568048 82.787865 -1.4473629 0
6.6650486 85.042374 -1.4881318 0
10.119593 -53.083954 -0.94242996 0
10.764712 -53.301643 -0.94832885 0
2.4340832 -52.735958 -0.92064923 0
2.5829153 -52.560699 -0.91771728 0
9.235445 -52.899837 -0.93649614 0
10.349756 -52.935585 -0.94064987 0
2.8989882 -52.287865 -0.91324949 0
3.0549788 -52.146774 -0.91094571 0
5.8309789 -52.203506 -0.91604197 0
7.7152615 -52.26162 -0.92127764 0
9.3813419 -52.278927 -0.92626905 0
9.6064568 -52.171005 -0.92511719 0
3.2708545 -51.795002 -0.90504688 0
3.5018673 -51.585545 -0.90166116 0
5.5933199 -51.541637 -0.90410441 0
3.8036754 -51.383518 -0.89851969 0
4.4308057 -51.12067 -0.8948198 0
5.1475639 -51.087578 -0.8954131 0
4.7335243 -50.959488 -0.89249283 0
6.9267631 -50.806324 -0.8941915 0
7.2791481 -50.995399 -0.89831018 0
4.1895256 -50.16584 -0.87785602 0
6.6720285 -50.049694 -0.88050878 0
7.0024748 -50.182217 -0.88358045 0
-0.17872238 -47.544563 -0.82905906 0
1.8257823 -47.647858 -0.83146757 0
2.0562093 -47.956772 -0.83701742 0
-0.7605834 -47.094826 -0.82131022 0
-0.17441951 -47.438377 -0.82720917 0
