# .PCD v0.7 - Point Cloud Data file format
VERSION 0.7
FIELDS x y z intensity
SIZE 4 4 4 4
TYPE F F F F
COUNT 1 1 1 1
WIDTH 1421
HEIGHT 1
VIEWPOINT 0 0 0 1 0 0 0
POINTS 1421
DATA ascii
10.35848 12.805792 -2.0164847 0
10.730826 12.618137 -2.0279598 0
11.054957 12.52995 -2.0457799 0
5.8412786 13.060411 -2.0040131 0
6.0371056 13.006907 -2.0085464 0
9.4448042 13.462246 -2.0132818 0
9.744421 13.309271 -2.0195212 0
10.162107 13.137571 -2.0334771 0
8.4566784 13.978863 -2.0001197 0
8.7384005 13.855652 -2.0055263 0
9.193531 13.624964 -2.0123067 0
8.4127207 14.005362 -2.0001197 0
11.2406 15.437294 -2.0020337 0
11.114017 15.512916 -2.0006747 0
-29.677504 16.44117 -2.3690693 0
9.7552986 16.449144 -2.0049951 0
-29.651196 16.789942 -2.3793931 0
-29.819235 17.316576 -2.4079006 0
-29.889257 17.730665 -2.4267814 0
-38.557472 18.210716 -2.232233 0
-37.6814 20.94866 -2.2569358 0
-37.670967 21.175961 -2.2622743 0
-36.144241 22.360764 -2.2249062 0
-36.119148 22.736238 -2.2342219 0
-36.128162 23.291025 -2.2502367 0
-36.140572 23.7843 -2.2648909 0
-36.186481 24.29966 -2.2818477 0
-34.606564 27.86611 -2.3260193 0
-34.475636 27.58252 -2.3113651 0
-34.568207 28.103949 -2.3322997 0
-34.479141 28.295156 -2.335021 0
-34.560371 28.542154 -2.346535 0
12.672584 -86.883331 -1.5317628 0
18.688187 -54.079292 -1.9963907 0
18.759218 -53.737236 -1.9859209 0
18.9014 -53.352402 -1.9748927 0
19.066254 -53.034721 -1.9663773 0
18.635584 -51.328613 -1.9052333 0
19.063438 -51.030453 -1.9006265 0
1.1756315 -50.692806 -1.7690321 0
18.659468 -50.898624 -1.891413 0
18.718456 -50.104996 -1.8661458 0
18.901749 -49.643085 -1.8533028 0
18.950098 -49.303581 -1.8428329 0
0.66082019 -47.57058 -1.6596805 0
0.50587195 -47.048767 -1.6413931 0
0.21619964 -46.539299 -1.6235245 0
0.3588298 -46.198616 -1.6116588 0
-0.21700215 -45.911526 -1.6016077 0
0.069012672 -45.768219 -1.5965821 0
17.298594 -40.136417 -1.5245497 0
16.875473 -39.665245 -1.5036099 0
17.321348 -39.860859 -1.5160341 0
-0.65399283 -37.866585 -1.9822767 0
-0.81587541 -37.250095 -1.9501424 0
-0.95764548 -36.313728 -1.9012606 0
20.444353 -32.041222 -1.9893944 0
45.602047 -32.056896 -1.9448791 0
20.617836 -31.979725 -1.9915924 0
21.221386 -31.604099 -1.9925346 0
34.46764 -31.7547 -1.6349018 0
34.777122 -31.638653 -1.6401367 0
36.118877 -31.684309 -1.6761531 0
36.561451 -31.54155 -1.6845289 0
37.367008 -31.830025 -1.7124485 0
37.842537 -31.837759 -1.7252915 0
38.289215 -31.801788 -1.7364594 0
45.598328 -31.734299 -1.938318 0
21.420685 -31.367891 -1.9881384 0
21.638571 -31.272902 -1.9905109 0
31.790955 -31.046076 -1.5500494 0
32.173176 -31.061977 -1.5600076 0
32.748215 -31.320244 -1.5807378 0
33.243675 -31.302286 -1.5928596 0
34.888016 -31.450781 -1.6386012 0
36.037487 -31.486511 -1.6694523 0
45.662952 -31.258131 -1.9307333 0
30.32342 -30.833195 -1.5084958 0
30.785549 -30.91296 -1.5218275 0
31.182554 -30.925419 -1.5319483 0
45.695869 -30.760239 -1.9219153 0
46.27726 -30.735777 -1.938318 0
46.846146 -30.697393 -1.9541624 0
47.263611 -30.653742 -1.9655398 0
47.604317 -30.664207 -1.9757303 0
48.102539 -30.675714 -1.9905975 0
-1.5547346 -30.218712 -1.5832673 0
33.867188 -30.241966 -1.5838788 0
-2.1412733 -29.838381 -1.5652637 0
-1.802351 -29.666037 -1.5550896 0
-1.7626207 -27.162361 -1.9000269 0
-1.8036623 -26.741852 -1.8708686 0
-1.9863572 -26.228916 -1.8359902 0
-2.1304238 -25.044432 -1.7542359 0
-1.9863971 -25.184351 -1.7631645 0
-2.0471399 -24.95529 -1.7475392 0
-2.2362747 -22.659239 -1.9878483 0
-2.5225573 -21.205238 -1.8640869 0
-2.3512568 -21.148714 -1.8574631 0
-2.4266877 -20.951691 -1.8410778 0
-2.6591959 -19.290121 -1.6994208 0
31.856148 -19.084259 -1.9436526 0
32.333469 -19.098333 -1.9655292 0
32.698269 -19.108351 -1.9822767 0
33.001324 -19.151525 -1.99714 0
-2.6852925 -18.611778 -1.6409684 0
-2.719878 -18.256298 -1.6106381 0
-2.8076427 -17.741034 -1.725296 0
-2.8358731 -17.197475 -1.5206934 0
-2.762341 -16.022022 -1.9903699 0
33.44405 -16.218657 -1.9454322 0
33.859634 -16.295052 -1.9667851 0
34.309406 -16.312769 -1.9884523 0
-3.011548 -15.754796 -1.9635588 0
-2.8690643 -15.769922 -1.9621938 0
-3.0980461 -15.426984 -1.9261208 0
-2.9805498 -14.584975 -1.5595647 0
-4.0299654 -14.165161 -1.5428401 0
-3.1201396 -14.306387 -1.6891716 0
-3.1226928 -13.772252 -1.894793 0
-3.081115 -13.399506 -1.8448633 0
-3.0539787 -12.738872 -1.8343015 0
-2.976593 -12.769422 -1.8359716 0
-3.1528699 -12.255956 -1.7194221 0
-3.2290568 -11.851026 -1.762328 0
42.772148 -11.856503 -1.5482812 0
-3.551358 -11.123322 -1.841755 0
-3.2677855 -11.162964 -1.7023133 0
-3.2715862 -10.755546 -1.853973 0
-3.6352611 -10.378959 -1.7342324 0
-3.3778317 -10.28113 -1.6474985 0
-27.798269 -9.7656469 -1.5416079 0
-23.709341 -9.6176567 -1.7857658 0
-3.5361431 -9.7185335 -1.722006 0
-3.3718009 -9.789649 -1.8629709 0
-25.66123 -9.2846022 -1.9049097 0
-24.500072 -9.3406019 -1.8301307 0
-24.224352 -9.368412 -1.8128313 0
-23.387428 -9.3342848 -1.7574911 0
-3.6255352 -9.2294092 -1.7529763 0
-3.4506817 -9.2606115 -1.7809132 0
20.598139 -9.1186581 -1.9665823 0
-25.638647 -8.7839422 -1.8917955 0
-25.36734 -8.6042576 -1.8697525 0
-4.1132331 -8.6332226 -1.8495388 0
-3.6465874 -8.7841873 -1.7059541 0
-3.3731947 -8.6927433 -1.9086061 0
21.034725 -8.8100452 -1.9909858 0
-28.568954 -8.1302242 -1.5541685 0
-28.303534 -8.1502638 -1.5410845 0
-26.022053 -8.0195265 -1.9007243 0
-25.56826 -8.4057322 -1.8786814 0
-3.6690154 -8.2211323 -1.7986087 0
-3.4256616 -8.2576389 -1.8413445 0
20.253819 -8.2335539 -1.9085945 0
-29.140928 -7.5172968 -1.5746843 0
-28.583885 -7.9449105 -1.5522846 0
-26.764786 -7.7497663 -1.9450896 0
-26.209066 -7.8983459 -1.9107693 0
-5.0271316 -7.5102468 -1.5850606 0
-3.6274874 -7.7439394 -1.7866687 0
-3.444942 -7.9260411 -1.8378609 0
-29.307636 -7.462131 -1.5824299 0
-28.960648 -7.2288332 -1.5618095 0
-4.661963 -7.2551298 -1.5121284 0
-3.6452963 -7.1505361 -1.7499069 0
-3.4348881 -7.2213588 -1.9818242 0
18.452993 -7.0360188 -1.7235919 0
18.783678 -7.297111 -1.7588029 0
-28.90708 -6.6839309 -1.5524241 0
-28.098083 -6.5726023 -1.5097876 0
-4.070713 -6.7307739 -1.7685684 0
-3.761797 -6.8128486 -1.7935114 0
-3.4589496 -6.5843148 -1.9851786 0
17.989799 -6.6024566 -1.6723443 0
18.207724 -6.8131042 -1.6966318 0
-27.427391 -6.0542126 -1.9607149 0
-5.0808597 -6.2923827 -1.5628529 0
-4.8869486 -6.2683935 -1.5356308 0
-4.1621432 -6.3873591 -1.7690489 0
-3.7275031 -6.2736554 -1.8065261 0
-3.4770825 -6.3132248 -1.931797 0
17.420753 -6.08848 -1.7186289 0
17.797869 -6.3532481 -1.8386729 0
-27.443947 -5.9223852 -1.9598778 0
-6.7175207 -5.5326843 -1.5260202 0
-5.2373662 -5.8095231 -1.5583445 0
-4.0938058 -5.7023168 -1.8021489 0
-3.7893989 -5.783041 -1.7996374 0
17.206848 -5.7646184 -1.7695707 0
-32.941807 -5.1013279 -1.7444621 0
-8.2110243 -5.0816755 -1.8676385 0
-7.177506 -5.0798068 -1.5419959 0
-6.16821 -5.4261799 -1.5875309 0
-5.8118782 -5.2653918 -1.5613573 0
-5.1209836 -5.4281211 -1.5759705 0
-4.5485878 -5.254323 -1.849262 0
-4.1956744 -5.1627278 -1.7756566 0
-3.8842418 -5.3414569 -1.6956303 0
16.852036 -5.2151365 -1.8490665 0
17.228571 -5.3664389 -1.891547 0
-32.906322 -4.9900503 -1.7417406 0
-7.7261643 -4.9122038 -1.8364938 0
-7.1627531 -4.6542177 -1.7444328 0
-6.8819222 -4.5819225 -1.7581859 0
-5.7515697 -4.6752982 -1.5654709 0
-5.3978729 -4.8728719 -1.5356358 0
-4.2656736 -4.7491789 -1.7095795 0
-3.892206 -4.8041134 -1.5296501 0
16.486328 -4.7434578 -1.7980986 0
16.627855 -4.7545276 -1.7683464 0
17.463274 -4.5701361 -1.5750786 0
17.535702 -4.529089 -1.580308 0
-7.0702028 -4.4695568 -1.6165339 0
-5.5998116 -4.4308572 -1.5593383 0
-5.3789573 -4.1367283 -1.5555365 0
16.495104 -4.0409226 -1.7799107 0
16.633905 -4.3164325 -1.8011823 0
17.708941 -4.3704867 -1.5916382 0
18.171793 -4.483839 -1.6332986 0
-46.214836 -3.7391305 -1.6174521 0
-5.3786669 -3.9838152 -1.5341661 0
15.747121 -3.671674 -1.9794831 0
16.37566 -3.9027004 -1.7643012 0
16.5191 -3.8021383 -1.7765658 0
18.170586 -3.5054822 -1.6148216 0
15.663605 -3.2426777 -1.9581966 0
16.105043 -3.0005064 -1.7167754 0
16.654699 -3.201118 -1.7774856 0
18.189518 -3.4273944 -1.6151702 0
-35.485836 -2.6131756 -1.8622528 0
-5.4322753 -2.862443 -1.518947 0
15.262159 -2.6994097 -1.8294115 0
15.678412 -2.9669399 -1.9533218 0
-35.506989 -2.3905053 -1.862532 0
-35.47987 -2.1669178 -1.8603688 0
-5.2107234 -2.1755624 -1.5001152 0
13.813298 -2.1982477 -1.9017015 0
15.134046 -2.1982813 -1.7911068 0
15.612885 -2.1639445 -1.9294354 0
-35.516582 -1.7840855 -1.8611712 0
13.931525 -1.9715418 -1.970691 0
14.99383 -1.7707504 -1.8479048 0
15.057789 -1.7080121 -1.6944466 0
-5.6055069 -1.106163 -1.5180601 0
14.801036 -1.1915462 -1.6776284 0
15.219574 -1.4313689 -1.7626702 0
14.750054 -0.83672667 -1.7001185 0
15.272952 -0.66663975 -1.6988831 0
14.236618 -0.043574356 -1.9940722 0
14.885428 -0.25484416 -1.8221462 0
15.38308 -0.25900629 -1.6120613 0
15.550236 -0.12630484 -1.6293896 0
13.357119 0.33165091 -1.7522589 0
14.12558 0.15378587 -1.7285948 0
14.881104 0.11231299 -1.6897187 0
15.12104 0.041506834 -1.5842333 0
13.367973 0.58410972 -1.8056431 0
14.175542 0.88298786 -1.9893403 0
14.893591 0.80916983 -1.8255332 0
15.096349 0.82562768 -1.6370903 0
14.285623 1.310716 -1.9038793 0
14.734218 1.2277946 -1.6789463 0
-6.1549988 1.7100595 -1.5808789 0
-5.9771972 1.5870264 -1.529914 0
14.199663 1.7984692 -1.9405557 0
14.815883 1.7270149 -1.8256028 0
16.386297 1.9006076 -1.7287613 0
13.993336 2.46608 -1.9901754 0
14.292293 2.2485731 -1.797838 0
14.537307 2.3764668 -1.6730442 0
16.267969 2.0399847 -1.7181692 0
17.117458 2.0390513 -1.5039595 0
-4.9544024 2.7394714 -1.5145731 0
13.910226 2.7397125 -1.9858608 0
14.404049 2.7502725 -1.7092227 0
14.567377 2.7185524 -1.7200633 0
15.217816 2.8680496 -1.6225605 0
-4.7114949 3.3202474 -1.5373958 0
13.773494 3.2513416 -1.9822888 0
14.399353 3.3046455 -1.8081145 0
14.527061 3.0749817 -1.8173157 0
15.153538 3.0991662 -1.6206093 0
-5.0695119 3.7153938 -1.6132237 0
-4.7190189 3.786638 -1.6008421 0
13.655082 3.7637465 -1.9840055 0
14.322109 3.7864294 -1.731622 0
16.862707 3.7257142 -1.5066788 0
17.182415 3.6279366 -1.532198 0
-5.164835 4.1513934 -1.6402304 0
-4.7182555 4.241837 -1.6450422 0
13.454524 4.385911 -1.9821033 0
13.535225 4.1346745 -1.982289 0
14.255105 4.2427239 -1.6959479 0
16.842863 4.316504 -1.5169748 0
-4.6979089 4.7169676 -1.6883867 0
-4.4944377 4.8388681 -1.7689991 0
5.4845667 4.9810972 -1.9860864 0
5.7285495 4.7380362 -1.9934922 0
13.321361 4.7585921 -1.9814073 0
14.200423 4.748106 -1.70052 0
-5.1340022 5.17136 -1.5829309 0
-4.6860652 5.2217736 -1.8006902 0
-4.4111714 5.3659124 -1.8614161 0
4.9653378 5.4623137 -1.9787922 0
5.2330241 5.215961 -1.9812109 0
13.147353 5.2523847 -1.9830776 0
14.214665 5.2577286 -1.7280928 0
-7.4536476 5.9762435 -1.5055252 0
-5.1532617 5.6259885 -1.6502796 0
-4.7369685 5.7196245 -1.7739409 0
-4.2432342 5.7439866 -1.9101831 0
-3.8515563 5.8998718 -1.8883202 0
4.379498 5.9140797 -1.9727803 0
4.7166834 5.6645455 -1.9763609 0
12.93849 5.828721 -1.9876702 0
13.028055 5.5787525 -1.9850259 0
13.980763 5.9605846 -1.8602136 0
14.156601 5.7062011 -1.7480165 0
-8.0956287 6.2269354 -1.6100235 0
-7.5900898 6.0078697 -1.5255489 0
-5.2159457 6.1708474 -1.5857044 0
-4.7310662 6.2373948 -1.802727 0
-4.2435331 6.2259254 -1.9714397 0
-3.7439599 6.2648802 -1.9480158 0
-3.2494102 6.2504473 -1.8882617 0
-2.8526883 6.4317431 -1.8856356 0
3.429143 6.4692655 -1.9626408 0
3.7494845 6.2982779 -1.9652855 0
4.131074 6.0776343 -1.9699751 0
12.780786 6.2421436 -1.9923557 0
13.939868 6.2283926 -1.8688419 0
14.286803 6.1893768 -1.6314801 0
-8.4053612 6.5710397 -1.6821918 0
-5.543498 6.7656002 -1.6909493 0
-5.3002076 6.8886518 -1.6619095 0
-4.7635846 6.7638321 -1.8090879 0
-4.2131205 6.7090559 -1.9636139 0
-3.7439454 6.7510214 -1.9782231 0
-3.2463117 6.6969042 -1.9816538 0
-2.7304199 6.7693582 -1.9479715 0
-2.2438409 6.6920981 -1.8919135 0
-1.7543802 6.841867 -1.8932106 0
-1.2866731 6.955349 -1.8958771 0
1.9055879 6.9763117 -1.938385 0
2.2556503 6.890048 -1.9435903 0
2.7484808 6.7398787 -1.9513825 0
3.1815691 6.5769706 -1.9585887 0
12.395815 6.9012666 -1.9871693 0
12.586803 6.6591434 -1.994567 0
13.901181 6.7546282 -1.8918554 0
14.159904 6.7444978 -1.6435012 0
-8.6449022 7.2707338 -1.7814757 0
-8.3822174 7.1164184 -1.7339195 0
-7.0532365 7.2128692 -1.5902084 0
-5.5470815 7.3068709 -1.6091399 0
-5.2879481 7.3578029 -1.6210696 0
-4.7887421 7.1750498 -1.7668316 0
-4.3058276 7.3318582 -1.952301 0
-3.6480627 7.0793762 -1.9737848 0
-3.2509882 7.2490139 -1.9692005 0
-2.787586 7.3065 -1.9812056 0
-2.2570601 7.1357388 -1.9929063 0
-1.7469331 7.2902675 -1.9962378 0
-1.2212113 7.3515682 -1.9859439 0
-0.76689035 7.0869508 -1.9096861 0
-0.24659787 7.1097841 -1.9069378 0
0.24987015 7.136714 -1.9141872 0
0.74746811 7.1182337 -1.9186265 0
1.2597951 7.1037464 -1.9340323 0
1.6570301 7.0343142 -1.9371113 0
12.317436 7.1372223 -1.9939793 0
13.809637 7.2424622 -1.8011023 0
14.032508 7.3103518 -1.6579608 0
-5.1208925 7.6111813 -1.6092169 0
-4.7655354 7.7761731 -1.8228517 0
-4.1836743 7.6711946 -1.9506512 0
-3.7622266 7.6530252 -1.9580169 0
-3.251858 7.8618999 -1.953432 0
-2.6349397 7.5596805 -1.9841632 0
-2.2486022 7.6942873 -1.9869852 0
-1.7471435 7.8335958 -1.9894736 0
-1.2489234 7.931385 -1.9901946 0
-0.9175114 7.9879341 -1.9927453 0
13.496822 7.8765821 -1.9128612 0
13.772732 7.6972399 -1.7630448 0
-5.5738015 8.2931662 -1.5749822 0
-5.176549 8.1261463 -1.6034974 0
-4.8516011 8.2085075 -1.7417719 0
-4.2456231 8.1593761 -1.9451383 0
-3.749388 8.3375263 -1.9331383 0
-3.408112 8.434226 -1.9233911 0
-2.7565601 8.1179914 -1.9685144 0
-2.2415986 8.2972593 -1.9734507 0
-1.7416799 8.4264212 -1.9756857 0
-1.4402292 8.4875813 -1.9764199 0
-0.65857613 8.0274391 -1.9963396 0
-0.4252544 8.0530443 -1.998662 0
13.358665 8.2403393 -1.9213921 0
13.857988 8.2234259 -1.688669 0
-8.8097115 8.7705231 -1.5204419 0
-5.0969915 8.7088594 -1.6103235 0
-4.7820501 8.6768217 -1.7971154 0
-4.3748178 8.916338 -1.9212731 0
-3.1676688 8.6275034 -1.9434305 0
-2.7519865 8.8273144 -1.9554205 0
-2.361989 8.9613514 -1.9596926 0
-1.1908572 8.5268803 -1.9767498 0
-0.74295861 8.5894852 -1.9796166 0
-0.25112554 8.6512117 -1.9872674 0
0.2445572 8.6798449 -1.9938712 0
12.306766 8.85989 -1.8560702 0
12.811321 8.8053312 -1.9028679 0
13.042689 8.6987753 -1.9190359 0
13.797554 8.7477999 -1.7120926 0
-5.1305814 9.3420563 -1.6804816 0
-4.8673191 9.2626104 -1.83658 0
-4.1201453 9.0461464 -1.9228776 0
-3.7609444 9.2291975 -1.9281038 0
-3.3192465 9.4103136 -1.9304 0
-2.1117887 9.0301533 -1.9610232 0
-1.7459536 9.1047859 -1.9605612 0
-1.2422799 9.2170897 -1.9668906 0
-0.74401712 9.3091154 -1.975014 0
-0.2558251 9.3663454 -1.9816185 0
0.25234607 9.3853102 -1.9856493 0
0.76011127 9.3752069 -1.9892993 0
1.1699725 9.3561497 -1.9940623 0
12.208516 9.2094202 -1.7943103 0
13.625246 9.1450548 -1.7197024 0
14.544072 9.3032122 -1.5062838 0
-5.1708555 9.714406 -1.6655054 0
-4.7277126 9.7326269 -1.8623075 0
-4.2892237 9.922761 -1.897776 0
-3.0665493 9.524992 -1.9357191 0
-2.7448912 9.6459122 -1.9402804 0
-2.2411077 9.7996826 -1.944905 0
-1.7415757 9.9240017 -1.9493523 0
-1.4512249 9.9925241 -1.9533753 0
12.375294 9.7707043 -1.930189 0
13.709635 9.92167 -1.773639 0
-5.3273225 10.25667 -1.6176367 0
-4.8868065 10.209612 -1.7851408 0
-4.0380292 10.053062 -1.9017948 0
-3.7696769 10.235893 -1.9150791 0
-3.3305178 10.420518 -1.9206067 0
-1.208371 10.039872 -1.9564086 0
-0.75735748 10.10498 -1.9605625 0
-0.25798562 10.158301 -1.966048 0
0.24479157 10.166203 -1.9675268 0
0.7456367 10.19209 -1.9772584 0
1.244612 10.2037 -1.9889455 0
1.7535597 10.156817 -1.9943355 0
2.05357 10.125489 -1.9989151 0
12.13804 10.242659 -1.9442549 0
13.690184 10.036211 -1.7790744 0
14.021622 10.184665 -1.5119778 0
-5.5643349 10.556633 -1.6703556 0
-5.3025155 10.73683 -1.6762009 0
-4.7705021 10.801253 -1.8626773 0
-3.0762947 10.519147 -1.9240217 0
-2.757833 10.622789 -1.9268869 0
-2.2481999 10.766516 -1.9310603 0
-1.7522724 10.879297 -1.9347184 0
-1.2634637 10.96065 -1.9371196 0
2.8363709 10.973035 -1.990008 0
3.2515478 10.890813 -1.9957963 0
3.5452564 10.821259 -1.9993851 0
11.942865 10.763896 -1.9682246 0
12.016109 10.529092 -1.9557592 0
13.579111 10.832877 -1.7186304 0
-5.1857362 11.239625 -1.7329835 0
-4.5504074 11.035916 -1.8830538 0
-4.2484255 11.181871 -1.8871005 0
-3.7857361 11.41653 -1.897526 0
-1.0088589 11.000312 -1.9393029 0
-0.74004751 11.047804 -1.9440722 0
-0.24538553 11.117177 -1.952401 0
0.25470963 11.134241 -1.9554638 0
0.75217217 11.127696 -1.9582555 0
1.2395227 11.118813 -1.9643576 0
1.732223 11.132443 -1.9782463 0
2.2364902 11.089908 -1.9864856 0
2.5855467 11.039746 -1.9908186 0
11.941353 11.103583 -1.99622 0
13.410321 11.341948 -1.8409554 0
13.694942 11.262166 -1.6703504 0
-5.6877441 11.655437 -1.5866413 0
-5.2618036 11.742785 -1.6425183 0
-3.5238781 11.519638 -1.9003658 0
-3.2423384 11.624204 -1.9038966 0
-2.7443123 11.780467 -1.908322 0
-2.2401359 11.932271 -1.9154284 0
3.8178003 11.969151 -1.982268 0
4.2433929 11.884024 -1.991146 0
4.7480636 11.728572 -1.9965955 0
13.249313 11.744011 -1.8558819 0
13.625246 11.669472 -1.565317 0
-5.5190792 12.001061 -1.6159874 0
-5.1838474 12.32415 -1.8008454 0
-4.9380755 12.47063 -1.87828 0
-1.7432765 12.044571 -1.9200524 0
-1.2456454 12.143319 -1.925932 0
-0.73672378 12.21319 -1.9304011 0
-0.24803422 12.248408 -1.9328561 0
0.2457296 12.295536 -1.9403169 0
0.76039064 12.293065 -1.9432737 0
1.2577597 12.319342 -1.9538424 0
1.7587454 12.288243 -1.9586078 0
2.2565038 12.241603 -1.9640467 0
2.7532709 12.174081 -1.9693894 0
3.2510676 12.082795 -1.9742993 0
3.5705194 12.017197 -1.9779572 0
12.877614 12.339905 -1.8695662 0
13.071354 12.10308 -1.8672965 0
13.619577 12.22498 -1.5969983 0
-5.342165 12.806538 -1.6978836 0
-4.6776843 12.542526 -1.8746308 0
-4.2592406 12.734964 -1.8805925 0
-3.8110175 12.905306 -1.8844595 0
12.419415 12.890696 -1.8763278 0
12.620955 12.632833 -1.8718358 0
13.437037 12.848679 -1.6223519 0
13.556797 12.651771 -1.6181335 0
-5.5193448 13.258329 -1.5043737 0
-5.2834072 13.22655 -1.7004991 0
-3.5665905 13.017507 -1.8901563 0
-3.2620687 13.095695 -1.8900636 0
-2.7551649 13.232614 -1.8929683 0
-2.2494471 13.359664 -1.8973469 0
-1.8187184 13.451938 -1.9010425 0
3.9936922 13.499919 -1.9718044 0
4.2560482 13.459217 -1.9772198 0
4.7563791 13.368798 -1.9875774 0
5.2604203 13.223698 -1.9934691 0
5.6017303 13.12162 -1.9983866 0
11.876386 13.318997 -1.8705369 0
12.165894 13.141479 -1.8772268 0
13.315908 13.270614 -1.640576 0
-5.5471821 13.681264 -1.5466031 0
-5.249208 13.785529 -1.7681569 0
-1.5709559 13.51187 -1.9050013 0
-1.2578012 13.569725 -1.9086199 0
-0.75954562 13.641769 -1.9135375 0
-0.2519829 13.698193 -1.918826 0
0.2592237 13.721833 -1.9221662 0
0.76423794 13.723475 -1.9250425 0
1.2554823 13.702957 -1.9272186 0
1.7458549 13.680371 -1.9315834 0
2.2478883 13.731286 -1.9488407 0
2.7638352 13.665432 -1.9527841 0
3.2571373 13.591221 -1.957533 0
3.7338593 13.546859 -1.9682113 0
11.762485 13.741994 -1.8961928 0
13.241139 13.782433 -1.6679283 0
-5.5699344 14.210642 -1.5991809 0
-5.0716524 14.093144 -1.8331586 0
-4.7589974 14.30455 -1.8452235 0
-4.2371297 14.440127 -1.8419553 0
-3.9620206 14.495952 -1.8392521 0
7.3831306 14.474091 -1.9891514 0
7.7318115 14.332604 -1.9937381 0
8.1863632 14.122458 -1.9984404 0
11.622737 14.23629 -1.926599 0
13.151356 14.210294 -1.6897755 0
-5.6010165 14.970897 -1.6749642 0
-3.7171235 14.669052 -1.8522366 0
-3.2374511 14.860256 -1.8615875 0
-2.8736825 14.968541 -1.8655758 0
6.2354627 14.91896 -1.9795569 0
6.7447448 14.715934 -1.9818171 0
7.1410623 14.552154 -1.9844393 0
11.553797 14.743375 -1.9637015 0
12.980417 14.978833 -1.7298671 0
13.029178 14.799849 -1.72089 0
-5.5261602 15.055911 -1.6806087 0
-5.4743304 15.28272 -1.7011658 0
-2.6209753 15.036274 -1.8681756 0
-2.227459 15.128368 -1.8717357 0
-1.7457983 15.234629 -1.8769829 0
-1.2484394 15.295823 -1.8785161 0
-0.75022411 15.362866 -1.8827353 0
-0.25597262 15.390778 -1.8841885 0
0.24520965 15.436002 -1.889706 0
0.75044686 15.450821 -1.8935393 0
1.134704 15.461555 -1.897652 0
2.8851111 15.470729 -1.9264293 0
3.2691407 15.413065 -1.9287529 0
3.7632813 15.371457 -1.9372838 0
4.255353 15.304799 -1.9446446 0
4.7321534 15.212398 -1.9502995 0
5.2270517 15.128932 -1.9595127 0
5.7283883 15.047879 -1.9711634 0
11.40554 15.162025 -1.9891071 0
12.906384 15.299544 -1.7470077 0
13.051204 15.154643 -1.7455552 0
-5.4736562 15.819921 -1.7544057 0
1.3538578 15.555489 -1.9113013 0
1.7447184 15.560645 -1.916761 0
2.2569253 15.535296 -1.9216845 0
2.6237965 15.509852 -1.9255356 0
9.9964876 15.955874 -1.9739156 0
10.046111 15.879948 -1.9699435 0
10.755696 15.726859 -1.9975622 0
11.032722 15.553742 -1.9992114 0
12.846664 15.764456 -1.774979 0
-5.2648683 16.363306 -1.8016943 0
-4.9920788 16.477978 -1.8045794 0
8.9688244 16.491989 -1.968062 0
9.1026793 16.435413 -1.9696299 0
9.9037685 16.178312 -1.9886889 0
12.463173 16.461645 -1.8022065 0
12.678472 16.21681 -1.7967591 0
-5.6828418 16.511017 -1.5234826 0
-4.7511926 16.684902 -1.8183771 0
-4.2706552 16.850433 -1.8220471 0
7.8160472 16.95223 -1.9569818 0
8.2469721 16.795557 -1.961623 0
8.7253485 16.594587 -1.9655533 0
11.946709 16.95245 -1.8102248 0
12.205176 16.707621 -1.8060606 0
-29.965872 17.334869 -1.8117661 0
-4.0441685 17.063103 -1.8380284 0
-3.7503994 17.126097 -1.8376939 0
-3.2291477 17.296753 -1.8443838 0
-2.7335069 17.431847 -1.8495498 0
-2.3538995 17.486124 -1.8494011 0
6.3527369 17.325216 -1.9344735 0
6.7712679 17.225903 -1.9403735 0
7.2501888 17.102823 -1.9474175 0
7.5624461 17.025749 -1.9530097 0
11.691579 17.252819 -1.8192192 0
13.103271 17.178495 -1.5074373 0
-5.7730522 17.843287 -1.6365525 0
-2.1100147 17.5235 -1.8500493 0
-1.7582865 17.591244 -1.8531271 0
-1.2452763 17.672726 -1.8570944 0
-0.72841877 17.686441 -1.8554963 0
-0.2330451 17.733059 -1.8589807 0
0.26427746 17.809978 -1.8671107 0
0.75515056 17.817625 -1.8693871 0
1.2544818 17.83993 -1.8746831 0
1.7589898 17.863447 -1.8816054 0
2.2614126 17.833559 -1.8843926 0
2.7486315 17.922886 -1.900792 0
3.256804 17.903099 -1.9075748 0
3.7704456 17.873837 -1.9149615 0
4.2745166 17.790056 -1.9180276 0
4.7732735 17.708076 -1.922627 0
5.250886 17.613153 -1.9267209 0
5.7362394 17.534878 -1.9341019 0
6.1295333 17.529232 -1.9467381 0
11.408123 17.761217 -1.8426466 0
12.920579 17.959377 -1.5437107 0
13.086734 17.721876 -1.5371536 0
-5.6967545 18.190966 -1.6635126 0
11.269555 18.223122 -1.8703623 0
13.011922 18.264523 -1.5647771 0
-5.6941657 18.794954 -1.7139467 0
11.114909 18.680338 -1.8975549 0
12.877731 18.749182 -1.5871922 0
13.059197 18.51466 -1.5809608 0
10.842082 19.366129 -1.9375966 0
11.038939 19.085585 -1.9247475 0
12.727494 19.225363 -1.6089189 0
-5.1516638 19.610907 -1.7697499 0
-4.8418183 19.791918 -1.778442 0
-4.3317738 19.788345 -1.7680416 0
9.7307749 19.750696 -1.9221328 0
10.26956 19.574205 -1.9297278 0
10.590328 19.530991 -1.9395639 0
12.676322 19.74017 -1.6371146 0
-4.03932 20.092028 -1.7887845 0
-3.7605207 20.157196 -1.7897868 0
-3.2650356 20.287254 -1.793578 0
-2.7704298 20.413002 -1.7981101 0
-2.3682618 20.487322 -1.8001496 0
7.9182448 20.478868 -1.9167291 0
8.2763109 20.372343 -1.919649 0
8.7729492 20.263079 -1.9276359 0
9.4484358 20.41523 -1.9639095 0
9.5784941 20.203226 -1.9519401 0
12.6656 20.25717 -1.6672494 0
-6.1206074 20.938765 -1.5220863 0
-2.1125753 20.511656 -1.7998242 0
-1.7654934 20.589808 -1.8038188 0
-1.2545121 20.660181 -1.8066949 0
-0.74329191 20.717293 -1.8095276 0
-0.23930776 20.777046 -1.8137109 0
0.24586283 20.818369 -1.8173217 0
0.73195493 20.848761 -1.8209884 0
1.2558123 20.909603 -1.8284839 0
1.6089212 20.906351 -1.8302706 0
4.800199 20.961954 -1.8772184 0
5.2386789 20.923084 -1.882863 0
5.7411375 20.853806 -1.8881857 0
6.235024 20.780699 -1.8939689 0
6.7388387 20.711338 -1.9013461 0
7.2514391 20.63773 -1.9096072 0
7.6523499 20.546392 -1.9140098 0
9.3097115 20.532154 -1.968151 0
12.661262 20.729357 -1.6951753 0
-6.159605 21.442585 -1.5566854 0
1.8467081 21.080954 -1.8472135 0
2.147079 21.111238 -1.8523209 0
2.8096762 21.091091 -1.8573469 0
3.244875 21.095415 -1.8631407 0
3.7406738 21.053892 -1.8666581 0
4.2374272 21.045835 -1.8740476 0
4.5368767 21.011967 -1.8764632 0
12.43842 21.397856 -1.7273563 0
12.597979 21.142202 -1.7176136 0
-6.1732969 21.837025 -1.583472 0
12.341049 21.849573 -1.7513897 0
-6.1718879 22.342791 -1.6175131 0
10.967545 22.476021 -1.7454464 0
11.099009 22.41806 -1.7458651 0
11.810835 22.349133 -1.7642806 0
12.116623 22.091293 -1.7585143 0
-40.388962 22.89703 -1.6196158 0
-6.1403613 22.785772 -1.6468108 0
10.847549 22.565165 -1.7473996 0
11.403916 22.588249 -1.7660478 0
11.551194 22.534309 -1.7673501 0
-6.1523142 23.267822 -1.6795964 0
10.904795 23.236897 -1.7915555 0
-6.1554852 23.718697 -1.7101496 0
-4.7670412 23.767717 -1.691734 0
10.766674 23.705004 -1.8172258 0
-39.285248 24.332712 -1.612031 0
-6.0942426 24.100904 -1.734983 0
-5.7234392 24.21701 -1.736737 0
-5.2361846 24.341627 -1.7377268 0
-4.8142934 24.266708 -1.7266122 0
10.650349 24.244251 -1.8483373 0
-39.402683 24.800228 -1.6241528 0
-4.6081843 24.553146 -1.7435398 0
-4.231111 24.607441 -1.7426363 0
-3.7375536 24.674835 -1.7417727 0
-3.2543976 24.86993 -1.7505686 0
-2.7970243 24.984144 -1.7546263 0
10.566916 24.780815 -1.8804485 0
-39.421158 25.234655 -1.632831 0
-2.563616 25.019846 -1.7553519 0
-2.2567592 25.083811 -1.7577835 0
-1.7607292 25.190145 -1.7624205 0
-1.2609894 25.251139 -1.7645997 0
-0.75284177 25.377409 -1.7720004 0
-0.31999442 25.470194 -1.7778413 0
5.654387 25.356863 -1.8133197 0
9.2126722 25.196579 -1.8726623 0
9.7433271 25.323082 -1.8939581 0
10.412993 25.39941 -1.9162104 0
10.513841 25.092148 -1.8990501 0
-39.390759 25.738043 -1.6414862 0
-0.043929234 25.513885 -1.7807434 0
0.27447891 25.545374 -1.7830685 0
0.74955505 25.569132 -1.7853936 0
1.2564882 25.617764 -1.7901903 0
1.7785616 25.65419 -1.7948804 0
2.2582405 25.63645 -1.7962756 0
2.7438834 25.663933 -1.8014841 0
3.2613034 25.605307 -1.8016303 0
3.7624853 25.694559 -1.8125521 0
4.2567101 25.81069 -1.825899 0
4.757906 25.843384 -1.8341765 0
5.4397593 25.920906 -1.848686 0
5.7550497 25.815155 -1.8461747 0
6.2820201 25.897791 -1.860126 0
6.7452164 25.923416 -1.8697525 0
7.2217197 25.925798 -1.8785883 0
7.7162385 25.828051 -1.881611 0
8.1465378 25.802525 -1.8887261 0
8.9536362 25.810619 -1.9070024 0
9.0143995 25.609781 -1.8951439 0
10.148998 25.539766 -1.918396 0
-39.247086 26.258293 -1.647326 0
5.2763758 26.352428 -1.8759608 0
8.7278118 26.212921 -1.9285804 0
11.979211 26.063738 -1.5007858 0
12.076782 26.275919 -1.5130324 0
11.983644 26.500721 -1.5217202 0
-39.119728 27.239422 -1.662961 0
10.92121 27.188541 -1.5330247 0
11.052872 27.152504 -1.5338622 0
11.88199 27.293068 -1.557518 0
12.081924 27.168657 -1.5557734 0
-6.6540613 27.980379 -1.5047634 0
11.729104 27.639061 -1.5710207 0
-39.324902 28.397926 -1.6922067 0
-39.293591 28.743179 -1.6984189 0
-6.6273384 28.856163 -1.5491443 0
11.324689 28.975042 -1.6278574 0
-39.362213 29.270037 -1.7112619 0
-6.6624489 29.008093 -1.5573088 0
-6.4587488 29.146151 -1.5620189 0
11.346525 29.292301 -1.6437677 0
-39.367634 29.75028 -1.7214757 0
-6.4772811 29.896601 -1.6006429 0
11.170795 29.804689 -1.6655917 0
-39.254738 30.14819 -1.7267573 0
-6.3401933 30.323057 -1.621019 0
-5.5256238 30.489014 -1.6213679 0
-5.3671446 30.172506 -1.6035737 0
10.743279 30.22323 -1.6785187 0
11.029421 30.128824 -1.6789373 0
-39.473667 30.79587 -1.7466501 0
-6.1763997 30.647554 -1.6359521 0
-5.8126669 30.724091 -1.6362314 0
-5.0593691 30.936169 -1.6403134 0
-4.7453384 30.923048 -1.6370687 0
-1.8166908 30.996403 -1.6247175 0
10.338375 30.738506 -1.697098 0
10.56921 30.631584 -1.695685 0
-39.470703 31.252563 -1.7564218 0
-4.6803274 31.03788 -1.6425115 0
-4.2623796 31.19566 -1.6475776 0
-3.7419097 31.250008 -1.6469427 0
-3.2064445 31.308949 -1.6469078 0
-2.6562014 31.371183 -1.6474661 0
10.129595 31.237688 -1.7185035 0
-39.525127 31.716627 -1.7680085 0
-2.8356848 31.56143 -1.6582124 0
-2.2469563 31.614252 -1.6585057 0
-1.7319187 31.659019 -1.6591545 0
-1.26345 31.666409 -1.6583799 0
-0.78626257 31.805752 -1.6648697 0
-0.24910206 31.772972 -1.6627133 0
0.14725018 31.682346 -1.6578984 0
1.4888526 31.969635 -1.6747506 0
1.7508016 31.717991 -1.6622945 0
4.9253144 31.901936 -1.6891952 0
9.9126797 31.742756 -1.7402751 0
10.005905 31.529186 -1.7310641 0
-0.25204968 32.302856 -1.6904514 0
0.34649259 32.152176 -1.682601 0
0.7483592 32.205517 -1.6857761 0
1.2482985 32.17662 -1.6850609 0
1.8996689 32.179947 -1.6868926 0
2.5018196 32.158768 -1.6879392 0
4.872345 32.229259 -1.7057334 0
9.8531904 32.254448 -1.7649777 0
4.7888126 32.716167 -1.7303314 0
7.0735817 32.918583 -1.7620469 0
8.3568802 32.649368 -1.7637217 0
9.7567234 32.66124 -1.7839234 0
4.7127967 33.249786 -1.7574413 0
6.9017606 33.101948 -1.7695833 0
7.1976781 33.158508 -1.7757241 0
8.2600021 33.135284 -1.7871683 0
9.6595001 33.188877 -1.8090099 0
4.6489768 33.557213 -1.7729328 0
8.1893835 33.738846 -1.8169997 0
9.5491228 33.784389 -1.8374107 0
4.5613174 34.101246 -1.8005663 0
8.0795622 34.210789 -1.8397135 0
-6.2978973 42.641273 -1.5035402 0
6.6308255 -76.722321 -1.3433466 0
2.8344512 -66.223343 -1.1561522 0
3.2466698 -66.126328 -1.1547909 0
0.052311592 -58.115273 -1.013566 0
0.22538574 -57.94688 -1.0106339 0
17.143379 -39.114178 -1.4896501 0
17.20129 -38.749962 -1.4788313 0
62.293781 -38.549591 -1.2778652 0
62.78986 -38.598557 -1.2856839 0
63.357964 -38.674137 -1.294829 0
63.865604 -38.709209 -1.3027176 0
17.30513 -38.182652 -1.4622422 0
17.809984 -38.026474 -1.4646621 0
59.214417 -38.322338 -1.2303249 0
61.220455 -38.419266 -1.2607619 0
61.79895 -38.497368 -1.2700465 0
17.44836 -37.714123 -1.4494458 0
53.358906 -37.527714 -1.137827 0
53.780998 -37.573547 -1.1443194 0
54.211296 -37.634502 -1.151091 0
54.634594 -37.676403 -1.1575831 0
55.971748 -37.838715 -1.1784563 0
56.395809 -37.882149 -1.1850184 0
56.814384 -37.918331 -1.1914408 0
17.868027 -37.246899 -1.4409305 0
20.793678 -37.393417 -1.4924421 0
48.680336 -37.028591 -1.0667609 0
49.224899 -37.077721 -1.0748589 0
49.815289 -37.157055 -1.0839341 0
50.173073 -37.191978 -1.0893093 0
50.534393 -37.214455 -1.094615 0
51.19194 -37.321777 -1.1049817 0
51.725807 -37.359081 -1.112905 0
52.148338 -37.415611 -1.1194673 0
52.728424 -37.456432 -1.1281235 0
17.463102 -36.996876 -1.4269706 0
17.695404 -36.886108 -1.4269706 0
19.177746 -36.702576 -1.4444203 0
44.494972 -36.545605 -1.0042114 0
44.841919 -36.595337 -1.0094471 0
45.332703 -36.641186 -1.0166026 0
45.771317 -36.641586 -1.0225713 0
46.224434 -36.779102 -1.0302504 0
46.705139 -36.803268 -1.0370917 0
47.227886 -36.856182 -1.0448407 0
47.752068 -36.911407 -1.0526593 0
48.278011 -36.962479 -1.0604781 0
17.748056 -36.407944 -1.4127316 0
18.690813 -36.045681 -1.4162215 0
20.664909 -36.218052 -1.4544713 0
20.524933 -35.713169 -1.4367424 0
18.213705 -35.396751 -1.3884416 0
20.363409 -35.187954 -1.4180363 0
20.726173 -35.174881 -1.424039 0
18.794926 -34.937332 -1.3836952 0
20.83972 -34.754246 -1.4134296 0
18.55998 -34.241894 -1.358428 0
69.003052 -33.507702 -1.3381108 0
71.453751 -33.746712 -1.3784957 0
69.106148 -33.303795 -1.3381808 0
71.662369 -33.296638 -1.3784609 0
71.82032 -32.97398 -1.3786005 0
72.196526 -32.872532 -1.3838362 0
24.877232 -32.19099 -1.4190135 0
25.142593 -32.33429 -1.4286458 0
-0.78889668 -31.872934 -1.1116886 0
21.418503 -31.901505 -1.3401406 0
21.752613 -31.770117 -1.3428977 0
22.329605 -31.550106 -1.3480977 0
24.888615 -31.698139 -1.4056818 0
21.873972 -31.310942 -1.3321137 0
22.569332 -31.467655 -1.3506105 0
23.434504 -31.219532 -1.3614991 0
23.755732 -31.136742 -1.3659663 0
24.952162 -31.472391 -1.4008658 0
25.215738 -31.401703 -1.4046813 0
27.97665 -31.238026 -1.4627078 0
28.083471 -31.061304 -1.4606137 0
20.059713 -30.562832 -1.2749484 0
25.112316 -30.781799 -1.3855798 0
26.582636 -30.527906 -1.4118941 0
27.246075 -30.895027 -1.4368123 0
27.965746 -30.736324 -1.4494458 0
28.407352 -30.928335 -1.4648017 0
28.715696 -30.882881 -1.4709439 0
29.145929 -30.855757 -1.4805298 0
29.707764 -30.870584 -1.4944431 0
30.007483 -30.795704 -1.4998407 0
-1.2129891 -30.043331 -1.0483111 0
20.137102 -30.483156 -1.2741108 0
25.305777 -30.430613 -1.3804146 0
25.762674 -30.336561 -1.3881623 0
26.213722 -30.387348 -1.3997489 0
-2.0770264 -29.657406 -1.0365151 0
-1.7517582 -29.662622 -1.0359799 0
-1.2790421 -29.770132 -1.0388882 0
-2.183651 -29.270905 -1.0233231 0
-2.7694702 -20.263741 -1.0693283 0
-2.9144311 -19.783821 -1.39499 0
-2.3320317 -19.805996 -1.0426369 0
-3.1517656 -19.061771 -1.0100316 0
-2.8694332 -19.490059 -1.3742026 0
-3.7542355 -18.032625 -1.2846351 0
-3.7472782 -17.732382 -1.2639874 0
-3.0623169 -17.731092 -1.2548724 0
-4.5530176 -17.291203 -1.2469667 0
-4.4313827 -17.258183 -1.2425952 0
-4.0355053 -16.876076 -1.2099957 0
-2.8613839 -16.712353 -1.4792073 0
-2.8881471 -16.25465 -1.4401615 0
-2.9120369 -15.829201 -1.4039047 0
-2.9510734 -15.405586 -1.3681127 0
-3.3168006 -14.692172 -1.1813195 0
-2.9824026 -14.94339 -1.3289508 0
-4.2528663 -14.223643 -1.1217881 0
-4.305614 -13.828879 -1.1790098 0
-3.9904146 -13.924389 -1.0095156 0
-3.0984328 -13.744806 -1.4758375 0
56.084877 -13.638561 -1.0066549 0
-5.1691108 -13.245083 -1.2397032 0
-3.1220627 -13.182411 -1.4187998 0
56.100224 -13.455768 -1.0061661 0
-5.1445608 -12.942115 -1.2142538 0
-4.7530837 -12.637962 -1.1770905 0
-3.1396141 -12.727984 -1.3728071 0
-4.8770742 -12.383721 -1.1602172 0
-3.8070011 -12.087103 -1.3268843 0
-3.1962509 -12.247647 -1.3253512 0
-3.6258745 -11.705028 -1.2828779 0
-3.3031909 -11.676435 -1.4840436 0
-5.6446509 -11.086547 -1.0842174 0
-5.1305056 -11.451641 -1.0936302 0
-4.9265594 -11.136772 -1.0612082 0
-3.3337467 -11.238559 -1.3736476 0
37.443756 -11.13488 -1.3624763 0
40.220539 -11.420902 -1.4583801 0
-5.530488 -10.737597 -1.0524927 0
-5.4441924 -10.777161 -1.0521441 0
-4.4604435 -10.801216 -1.223192 0
-3.9256203 -10.5631 -1.1793598 0
-3.3456495 -10.754465 -1.3770018 0
-24.402761 -10.166782 -1.3829253 0
-4.0830688 -10.436316 -1.1728094 0
-3.7435884 -10.215655 -1.2698693 0
-3.4287426 -10.229466 -1.306339 0
-23.681955 -9.9542532 -1.3437779 0
-23.44091 -9.9398031 -1.3318454 0
-4.2208309 -9.6891212 -1.1775562 0
-3.8145461 -9.5281239 -1.2542791 0
-3.475827 -9.7721252 -1.4509259 0
-23.668779 -9.0092936 -1.3247278 0
-4.402916 -9.4758959 -1.0931587 0
-3.8194995 -9.0946589 -1.2052878 0
-3.4726188 -9.2285013 -1.3790199 0
-28.551149 -8.5433769 -1.0390278 0
-23.696964 -8.9348965 -1.3247278 0
-23.16029 -8.9407234 -1.2985598 0
-4.6074119 -8.765974 -1.0847014 0
-4.1660156 -8.6473083 -1.1709111 0
-3.7386653 -8.7047529 -1.3148246 0
-3.4947052 -8.9479656 -1.3432987 0
-28.764389 -8.2291641 -1.0431111 0
-28.389118 -8.1221695 -1.0294654 0
-4.5456929 -8.3612299 -1.1626335 0
-4.2590513 -8.4160862 -1.1523477 0
-3.6588922 -8.2276793 -1.3989539 0
-28.929722 -7.9488459 -1.0460078 0
-25.977024 -7.702774 -1.417467 0
-6.808969 -7.5145674 -1.0607548 0
-4.5511794 -7.5390449 -1.1271297 0
-4.3294964 -7.8232427 -1.0919493 0
-3.6532204 -7.7153406 -1.3654811 0
-29.583633 -7.4430232 -1.063597 0
-29.181587 -7.4348278 -1.0499164 0
-6.711545 -7.4761305 -1.0509291 0
-6.4501543 -7.2326555 -1.013508 0
-5.7296658 -7.293746 -1.4614108 0
-5.1189408 -7.0743699 -1.0662755 0
-4.5996571 -7.2762976 -1.2185702 0
-4.1834311 -7.2196369 -1.1426667 0
-3.7032409 -7.1869535 -1.2531821 0
18.457001 -7.0343204 -1.3778298 0
-34.549267 -6.6035242 -1.2266476 0
-6.8758488 -6.5070639 -1.4917591 0
-5.8658738 -6.7289505 -1.0901619 0
-5.1671796 -6.7847252 -1.2673427 0
-4.6759434 -6.713871 -1.2261984 0
-4.3153176 -6.7864003 -1.2516284 0
-3.7819397 -6.7150054 -1.3552375 0
17.789967 -6.5283222 -1.3217456 0
18.287273 -6.7386303 -1.1325049 0
-34.767139 -6.2560964 -1.2319243 0
-29.145092 -6.4206305 -1.0404936 0
-6.6538115 -6.2196779 -1.1124234 0
-6.340982 -6.1412277 -1.1957093 0
-5.8811684 -6.2507067 -1.1432446 0
-5.1881065 -6.0639834 -1.1731503 0
-4.7855029 -6.2323494 -1.3766109 0
-4.4297161 -6.0507288 -1.0471383 0
-3.8083596 -6.3145976 -1.3604877 0
17.356083 -6.0713553 -1.2824031 0
17.762398 -6.3699703 -1.3161651 0
-35.010685 -5.9847383 -1.2386529 0
-34.936401 -5.7503262 -1.2347442 0
-6.5720706 -5.6271801 -1.3109913 0
-6.1944385 -5.7694383 -1.1529957 0
-5.6724362 -5.6661897 -1.2252084 0
-5.2036977 -5.6881557 -1.1950418 0
-4.6947498 -5.7361794 -1.2456833 0
-4.1916776 -5.6829352 -1.2163448 0
-3.817157 -5.697124 -1.356198 0
17.208342 -5.7823591 -1.2660999 0
18.821476 -5.6379995 -1.0271978 0
19.053188 -5.7379036 -1.0403341 0
-34.986378 -5.1444097 -1.2332085 0
-6.6945877 -5.12708 -1.1385233 0
-6.330883 -5.3352103 -1.234668 0
-5.754806 -5.2164121 -1.3724672 0
-5.2629991 -5.2641015 -1.3328727 0
-4.7032971 -5.4049807 -1.3443964 0
-4.1873531 -5.3422608 -1.149153 0
-3.8647501 -5.25102 -1.3907809 0
18.497244 -5.0335932 -1.002129 0
18.730366 -5.2091794 -1.0163643 0
-34.950214 -4.9185534 -1.2308354 0
-6.6939106 -4.7608476 -1.1867641 0
-6.2193322 -4.7192535 -1.3126421 0
-5.8613043 -4.6881251 -1.263869 0
-5.2009158 -4.6443095 -1.2432883 0
-4.7956939 -4.7882442 -1.3802185 0
-4.2017913 -4.5935845 -1.11781 0
-3.9175351 -4.7271414 -1.3717403 0
16.478094 -4.8604741 -1.4988464 0
17.805862 -4.6749873 -1.2839842 0
18.158598 -4.8388109 -1.3107241 0
18.66214 -4.7397203 -1.0066297 0
19.187124 -4.71137 -1.0329025 0
-7.0257664 -4.4703994 -1.3608109 0
-6.7678623 -4.351203 -1.2796792 0
-6.3314385 -4.1445651 -1.0665435 0
-5.6495938 -4.3298483 -1.3910955 0
-5.3206587 -4.1539593 -1.2877545 0
-4.0306196 -4.1414213 -1.3982642 0
-3.9586346 -4.289854 -1.3352047 0
17.997051 -4.2976732 -1.2904948 0
18.020876 -4.2141094 -1.2907739 0
18.803936 -4.4947734 -1.010712 0
19.196308 -4.0228062 -1.0253661 0
19.517303 -4.0291762 -1.0419042 0
-6.1890984 -3.7529728 -1.1546899 0
-5.9143853 -3.6149595 -1.0902439 0
-5.3538833 -3.9264901 -1.2254779 0
-4.0385098 -3.7594788 -1.2993689 0
-3.9884932 -3.9420338 -1.2835708 0
-5.7828932 -3.4635103 -1.2105991 0
-5.0392866 -3.0350275 -1.3470069 0
-4.7740474 -3.1739895 -1.2538993 0
-4.0873299 -3.2220254 -1.2495445 0
18.210596 -3.4019191 -1.292076 0
18.619972 -3.2702882 -1.3186066 0
-6.5695839 -2.8017743 -1.0596873 0
-6.2552581 -2.7101669 -1.1998118 0
-5.7836518 -2.5997951 -1.259266 0
-5.1545715 -2.7214694 -1.2228683 0
-4.9292526 -2.8181858 -1.2775651 0
-4.1222544 -2.7178581 -1.2768255 0
15.199131 -2.6205699 -1.3451617 0
-28.895794 -2.0228541 -1.0098518 0
-6.5658479 -2.1698923 -1.0881581 0
-6.2136369 -2.3457386 -1.0443565 0
-5.8434372 -2.1638334 -1.1068828 0
-5.1134853 -2.2192941 -1.2407222 0
-4.7861772 -2.1354089 -1.3816068 0
-4.1394458 -2.2480569 -1.2539898 0
13.869478 -2.2318866 -1.3481461 0
15.016047 -2.2282648 -1.0581592 0
-28.773308 -1.8116157 -1.0051055 0
-7.0181608 -1.8044381 -1.1400943 0
-6.711319 -1.6743283 -1.1839967 0
-6.3218889 -1.7703938 -1.1291226 0
-5.8206663 -1.8375371 -1.2214624 0
-5.2020411 -1.7328042 -1.2597891 0
-4.8876095 -1.8103257 -1.3463548 0
-4.1726513 -1.7468368 -1.2081453 0
14.939588 -1.6594456 -1.1794364 0
15.022204 -1.8826205 -1.3203512 0
-26.986826 -1.1911395 -1.4131755 0
-6.5566077 -1.1786661 -1.0474852 0
-6.1800447 -1.1851466 -1.1922432 0
-5.6548643 -1.2012897 -1.2152171 0
-5.2497139 -1.330767 -1.2974484 0
-4.2387404 -1.2501956 -1.1800274 0
14.811695 -1.3160053 -1.2091838 0
15.109358 -1.3899615 -1.1907799 0
-6.2693486 -0.91250396 -1.2774884 0
-5.8540955 -0.91248012 -1.1498631 0
-5.2008691 -0.8017962 -1.2812126 0
-4.8349566 -0.57299179 -1.1270519 0
-4.2977095 -0.72819859 -1.1620615 0
14.8956 -0.84091318 -1.3010609 0
15.19546 -0.68889737 -1.0602984 0
15.729872 -0.61122668 -1.293506 0
16.028139 -0.53600752 -1.1180568 0
-6.5073786 -0.053275015 -1.0230813 0
-6.4419746 -0.067324571 -1.0127567 0
-5.6963177 -0.31318057 -1.0995686 0
-5.2547154 -0.1510804 -1.1324376 0
-4.7433696 -0.30566591 -1.1363959 0
-4.3343458 -0.25545174 -1.1461107 0
15.367917 -0.12759818 -1.2631716 0
15.732949 -0.29693374 -1.2216401 0
16.060368 -0.46176115 -1.1201494 0
-6.5683279 0.18140492 -1.0330932 0
-6.4163771 0.12633589 -1.0321797 0
-5.609673 0.18090959 -1.1327612 0
-5.3668642 0.22386755 -1.1772368 0
-4.6384907 0.27212209 -1.1126195 0
-4.3486438 0.26553389 -1.1544137 0
13.420965 0.34871739 -1.288242 0
14.923422 0.14579818 -1.249058 0
15.263694 0.048126101 -1.1298699 0
15.525562 0.15607226 -1.0823416 0
-6.3122716 0.72935724 -1.0793291 0
-5.7135272 0.80612463 -1.1461935 0
-5.2942505 0.67458749 -1.1560384 0
-4.7191448 0.7350989 -1.1811687 0
-4.3724747 0.79747361 -1.1757045 0
13.444745 0.52926117 -1.3303548 0
14.96494 0.66324449 -1.0441149 0
15.065792 0.76020086 -1.2276537 0
15.51333 0.92632329 -1.355446 0
-6.6278534 1.4108239 -1.1863644 0
-6.2282009 1.4214969 -1.1943754 0
-5.770957 1.1575291 -1.169229 0
-5.2693925 1.2523187 -1.1912283 0
-4.5232 1.3638766 -1.2618837 0
-4.4030876 1.1782868 -1.1865894 0
14.604033 1.3058469 -1.2785747 0
16.81922 1.1844757 -1.1756756 0
17.142092 1.388846 -1.1992532 0
-7.3107209 1.8554229 -1.0532621 0
-6.6938243 1.7833786 -1.1185228 0
-6.2484574 1.812434 -1.2150085 0
-5.6807451 1.7793506 -1.1681678 0
-5.088944 1.7148584 -1.2036519 0
-4.595036 1.7593212 -1.256796 0
-4.4810386 1.7265024 -1.2148304 0
16.882587 1.837382 -1.3023213 0
17.025351 1.9561177 -1.395185 0
-6.7144771 2.1754451 -1.1007 0
-6.2574887 2.2025421 -1.1708291 0
-5.7299328 2.128099 -1.2323989 0
-5.3051815 2.1819682 -1.1303201 0
-4.6290545 2.2395818 -1.2603458 0
-4.4946375 2.0846429 -1.2233505 0
14.448308 2.3322301 -1.2762216 0
14.547358 2.2238686 -1.2833508 0
16.947653 2.2510912 -1.2587357 0
17.015778 2.0586557 -1.2953357 0
-6.7932749 2.5365701 -1.0863048 0
-6.1441755 2.7974882 -1.1579964 0
-5.6784453 2.8305418 -1.2347322 0
-5.2552023 2.7221141 -1.123418 0
-4.6277585 2.7465572 -1.2645379 0
-4.4483833 2.7787056 -1.3918024 0
14.576387 2.5385659 -1.2902535 0
15.452385 2.9240828 -1.3027378 0
15.54895 2.873636 -1.1023383 0
16.918097 2.6195757 -1.1937844 0
17.092609 2.759696 -1.207345 0
-6.0326691 3.2643764 -1.0787721 0
-5.747262 3.1967123 -1.2013972 0
-5.195847 3.3389628 -1.1285549 0
-4.6309028 3.2627766 -1.2971025 0
-4.4906588 3.3848822 -1.4939035 0
15.428619 3.0437806 -1.2062157 0
15.611546 3.1861093 -1.1108021 0
-6.5364933 3.7792919 -1.0543754 0
-6.2489719 3.8239071 -1.1262587 0
-5.6350074 3.5759258 -1.1803265 0
-5.3392262 3.7375524 -1.1107746 0
-4.7055573 3.7562099 -1.2802086 0
14.252577 3.9872236 -1.2906023 0
16.700251 3.87094 -1.3238846 0
17.145061 3.946003 -1.2268769 0
-7.248714 4.0270472 -1.0122468 0
-6.6115837 4.0550423 -1.2208146 0
-6.0639229 4.1580286 -1.1579188 0
-5.7504535 4.247714 -1.2831988 0
-5.3703489 4.0437369 -1.1769377 0
-4.7102914 4.257978 -1.3007343 0
-4.2751951 4.0355206 -1.1334054 0
14.238606 4.2472801 -1.2957966 0
16.944838 4.0654311 -1.2151577 0
17.175793 4.3779202 -1.2360847 0
-6.7662225 4.8699379 -1.05024 0
-6.0913086 4.6874208 -1.3133285 0
-5.838913 4.8177476 -1.2268364 0
-5.1914678 4.7012248 -1.1327257 0
-4.7385702 4.7530789 -1.2618928 0
-4.4409661 4.8057966 -1.2381705 0
14.203183 4.7664099 -1.3065691 0
14.655496 4.6962132 -1.3421985 0
15.73986 4.6067319 -1.1434482 0
16.028187 4.7996907 -1.1666071 0
-7.0446014 5.4742022 -1.089512 0
-6.8591838 5.1248074 -1.2717955 0
-5.8365116 5.0834599 -1.2031677 0
-4.7853918 5.2900867 -1.2227961 0
-4.3947101 5.0325494 -1.1108081 0
14.259908 5.2536435 -1.3253871 0
15.751766 5.227819 -1.1571901 0
16.01984 5.4543986 -1.1800005 0
-7.1213684 5.6842089 -1.2158711 0
-6.6139665 5.7056623 -1.1692179 0
-4.8714409 5.7723274 -1.2938362 0
13.996315 5.7056112 -1.3181434 0
14.291943 5.6836638 -1.2817782 0
16.112814 5.5706539 -1.1887898 0
-8.3414116 6.3796759 -1.4691112 0
-7.8423386 6.1105132 -1.3904784 0
-7.0744543 6.0244503 -1.2168415 0
-5.0799212 6.0474882 -1.1032252 0
-4.9199195 6.2674208 -1.2150302 0
14.321141 6.2053957 -1.3613341 0
14.519785 6.0251904 -1.371134 0
-6.6380281 6.9984627 -1.3488657 0
-4.9447165 6.7390094 -1.2527657 0
13.921312 6.9703884 -1.3578866 0
14.953552 6.8924975 -1.2921371 0
-7.50981 7.0888848 -1.4446168 0
-7.4881244 7.1117883 -1.4446168 0
-6.6376247 7.2715726 -1.3770095 0
-6.4713655 7.3545742 -1.37002 0
-5.9712243 7.4157939 -1.163121 0
-5.059783 7.3340502 -1.231084 0
-4.9181209 7.1234565 -1.3634828 0
13.888798 7.3364244 -1.3700883 0
14.206777 7.2912226 -1.3092176 0
14.952888 7.1306033 -1.2276185 0
15.154094 7.1720324 -1.3149607 0
-6.7748103 7.6666422 -1.2058119 0
-6.2729478 7.710053 -1.1745267 0
-5.8008971 7.689836 -1.1295632 0
-5.0979676 7.7570395 -1.3042748 0
-4.9271092 7.906714 -1.2037141 0
13.88896 7.7845068 -1.281492 0
14.185929 7.6584239 -1.2649567 0
15.38523 7.555625 -1.1952074 0
-8.541151 8.3889961 -1.3934873 0
-7.606585 8.2552404 -1.3724113 0
-7.4680533 8.309926 -1.3659115 0
-6.0939856 8.1883249 -1.1883769 0
-5.9089198 8.271513 -1.1723235 0
-5.03935 8.2493887 -1.292724 0
-4.9584694 8.312788 -1.3872697 0
13.861495 8.2377043 -1.2579699 0
-9.1476755 8.8187408 -1.1523281 0
-8.743515 8.9024906 -1.0875294 0
-8.3305922 8.8030128 -1.0561533 0
-5.1414065 8.7681894 -1.1596841 0
-4.9370804 8.7031364 -1.2970918 0
13.881058 8.7209473 -1.33454 0
17.315264 8.6568995 -1.0120379 0
17.598595 8.7307014 -1.0270407 0
-9.5785599 9.2809954 -1.1626575 0
-9.0837927 9.0228739 -1.1159421 0
-8.6460323 9.3263159 -1.242422 0
-8.3908806 9.2980347 -1.0915385 0
-7.8186111 9.24265 -1.0549331 0
-5.1722841 9.2557526 -1.1842703 0
14.072111 9.1260242 -1.4631706 0
14.700271 9.4065523 -1.217018 0
17.073444 9.4524307 -1.0202372 0
-8.6975441 9.5649576 -1.2398145 0
-8.386281 9.9784489 -1.1361623 0
-7.0742335 9.9361687 -1.2769197 0
-5.2090235 9.74123 -1.2206192 0
13.754705 9.8540707 -1.3282611 0
14.645941 9.5008011 -1.2173899 0
17.006742 9.518919 -1.0188764 0
-8.5539141 10.24348 -1.1633549 0
-7.1776581 10.132871 -1.2568588 0
-6.9452047 10.182115 -1.0741074 0
-5.2860398 10.217506 -1.2327566 0
13.714854 10.057453 -1.4837394 0
-7.1522818 10.677042 -1.1876796 0
-5.3369746 10.786309 -1.1833441 0
-5.3497443 11.214475 -1.2040957 0
13.854619 11.429152 -1.2525471 0
15.403418 11.471678 -1.0040129 0
15.951243 11.384706 -1.0245287 0
16.248133 11.220827 -1.0323529 0
-5.3438196 11.735361 -1.2596383 0
13.657519 11.540706 -1.2469667 0
14.065356 11.74373 -1.2779386 0
15.836948 11.678288 -1.0287156 0
16.191708 11.748032 -1.0458816 0
-5.5046682 12.440931 -1.1860154 0
-5.4324899 12.203246 -1.2979959 0
-5.5203958 12.63427 -1.202052 0
-5.3964009 12.673075 -1.2489002 0
13.823347 12.709944 -1.3097475 0
14.105704 12.969463 -1.0017102 0
13.38815 13.306334 -1.3165836 0
13.698497 13.336728 -1.2497938 0
14.255605 13.279153 -1.0671459 0
-7.6847243 13.6491 -1.1842546 0
13.387935 13.64148 -1.3331858 0
13.554297 13.544446 -1.1134342 0
14.303001 13.594868 -1.0316464 0
-7.8334813 14.201487 -1.3442445 0
-5.6000404 14.245013 -1.2010986 0
-5.4460812 14.308423 -1.3352261 0
13.311303 14.292542 -1.3050534 0
13.69703 14.318031 -1.3248643 0
-7.8771152 14.762246 -1.4596844 0
-5.7325959 14.846359 -1.1094999 0
-5.4721899 14.583983 -1.3585837 0
13.258384 14.794333 -1.259391 0
-5.637857 15.235936 -1.3208171 0
-5.4967527 15.372793 -1.4241248 0
13.179922 15.174416 -1.2260945 0
13.558135 15.055262 -1.0592798 0
-5.6618967 15.710811 -1.2379053 0
12.929891 15.828941 -1.3541331 0
13.178344 15.71217 -1.1910442 0
-5.6377859 16.132046 -1.3407633 0
12.952676 16.25761 -1.2428722 0
13.040747 16.202259 -1.2696559 0
-5.7291927 16.752234 -1.2346896 0
12.947914 16.580322 -1.3207998 0
-5.8503656 17.103174 -1.2606391 0
12.946442 17.139771 -1.498648 0
13.11005 17.02503 -1.4992062 0
13.621566 17.862114 -1.1747329 0
-5.8274922 18.329727 -1.0054784 0
13.223391 18.383213 -1.184258 0
-5.8519392 18.816147 -1.0301809 0
12.912356 18.735733 -1.18998 0
13.249201 18.784008 -1.2021569 0
12.970716 19.303253 -1.2162876 0
12.818964 19.800474 -1.2336632 0
13.182907 19.831554 -1.245512 0
12.844144 20.392094 -1.2605115 0
13.814584 20.425285 -1.2897673 0
12.656679 20.731735 -1.2704659 0
-6.204236 21.475283 -1.1689759 0
12.466976 21.307026 -1.2912327 0
12.589332 21.213186 -1.2902557 0
-6.3128843 22.233608 -1.2087512 0
12.423398 22.494267 -1.3441967 0
12.715543 22.440359 -1.349221 0
-6.2988214 22.727097 -1.2334538 0
12.418773 22.733759 -1.3550825 0
12.689649 22.530016 -1.3526402 0
12.437012 23.327642 -1.3829253 0
12.544123 23.265648 -1.3827159 0
-6.521688 23.958359 -1.2987691 0
-6.4419932 23.959229 -1.2977223 0
12.34745 23.868881 -1.4058695 0
12.597008 23.799 -1.4086746 0
-6.3922672 24.07588 -1.302956 0
-6.4915409 24.764385 -1.3391724 0
