# .PCD v0.7 - Point Cloud Data file format
VERSION 0.7
FIELDS x y z intensity
SIZE 4 4 4 4
TYPE F F F F
COUNT 1 1 1 1
WIDTH 1466
HEIGHT 1
VIEWPOINT 0 0 0 1 0 0 0
POINTS 1466
DATA ascii
28.129257 3.7274103 0.9892146 0
-7.3308702 4.2327533 0.74298662 0
9.9252863 4.2151365 0.80088663 0
10.256121 4.2388811 0.83728468 0
10.589265 4.2974854 0.69590968 0
28.108904 4.259253 0.99112242 0
-7.3670707 4.7388344 0.76244098 0
9.8245153 4.568706 0.94372243 0
10.330379 4.6801763 0.6916334 0
10.514585 4.5339823 0.59757197 0
25.823866 4.8466315 0.91585588 0
28.068359 4.7838454 0.99263477 0
-7.3895211 5.2365484 0.78843981 0
25.745647 5.2479711 0.91588247 0
28.037899 5.0823035 0.99337924 0
-7.5785465 5.7154231 0.99260229 0
-7.4119763 5.7564697 0.80527729 0
25.711586 5.6577268 0.91767067 0
-7.3772612 6.2574821 0.69777501 0
28.147596 6.3893447 0.50297838 0
-7.4051642 6.7511029 0.70280993 0
28.187902 6.7579498 0.5051285 0
-7.4447317 7.2532544 0.72366357 0
-3.0199544 7.4036756 0.66045928 0
-2.9089301 7.4144864 0.77018857 0
28.156744 7.2533112 0.50668991 0
-7.5171862 7.848578 0.85161465 0
-7.4813709 7.6837807 0.69098467 0
-2.7504334 7.5703917 0.55986547 0
28.119684 7.6193485 0.50769049 0
-7.5432763 8.2341347 0.78526014 0
-7.6127877 8.7236195 0.73468179 0
-7.6537042 9.2974873 0.73866469 0
-7.5679975 9.75144 0.75221992 0
-7.5807714 10.265722 0.77021462 0
-7.732285 10.871345 0.81300485 0
8.3443918 10.979588 0.96096516 0
8.9158506 10.810287 0.97649759 0
9.208415 10.912255 0.81606901 0
9.5889368 10.957889 0.63413167 0
-7.7115479 11.245605 0.8310408 0
7.85391 11.249917 0.95605433 0
8.2749481 11.103079 0.90361214 0
8.773468 11.187677 0.82899219 0
9.2441788 11.113031 0.70447463 0
9.5724936 11.079637 0.76483768 0
-7.7254977 11.741067 0.86803472 0
7.4828873 11.820692 0.97491646 0
7.7786212 11.737205 0.89416134 0
8.2805233 11.716044 0.74897629 0
8.5704184 11.599394 0.68982011 0
27.89562 11.868447 0.5283193 0
-7.7540379 12.235605 0.68722051 0
8.4302187 12.002461 0.51050985 0
8.6786327 12.277327 0.5233528 0
27.856573 12.315027 0.53079748 0
-7.7857528 12.752927 0.63837409 0
27.823008 12.768053 0.53351307 0
-7.8071203 13.249298 0.6842348 0
20.359236 13.339655 0.84830207 0
20.810156 13.359045 0.86187792 0
27.798382 13.271614 0.53684998 0
-7.8625998 13.752977 0.68977928 0
20.431118 13.917642 0.86159873 0
20.617638 13.82484 0.86518174 0
27.773861 13.786028 0.54039627 0
-7.8675151 14.326057 0.71164185 0
20.124506 14.311582 0.86067742 0
20.632338 14.290635 0.87476748 0
27.709351 14.294348 0.54339808 0
-7.7673335 14.729556 0.72508359 0
25.261635 14.877216 0.51089007 0
25.626202 14.8253 0.51592803 0
27.488218 14.833992 0.54437548 0
27.514494 14.712554 0.54378206 0
-7.7881327 15.207971 0.76556522 0
-3.5996306 15.23521 0.81790638 0
-3.3267303 15.32536 0.76910394 0
-2.7595627 15.363365 0.81555122 0
25.197815 15.260373 0.51336604 0
27.476297 15.273059 0.54787987 0
-7.7571917 15.526434 0.90708673 0
-3.1575513 15.540512 0.71800768 0
-2.7578096 15.600134 0.82774544 0
25.155737 15.646793 0.51626545 0
27.45866 15.657883 0.55090261 0
-8.0155935 16.272671 0.63177395 0
-7.9771037 16.283215 0.94775188 0
-8.0054588 16.712322 0.64543128 0
-7.9694014 16.777016 0.97088432 0
-8.0088243 17.194897 0.66071725 0
-7.9734983 17.182251 0.99019623 0
-8.0325136 17.676834 0.67635226 0
19.947208 17.83213 0.93265414 0
20.003132 17.769377 0.93265414 0
-8.0530386 18.092815 0.68989325 0
27.451799 18.903944 0.58095574 0
27.423254 19.263813 0.58413905 0
24.932968 19.846138 0.55540538 0
25.29982 19.818129 0.56012917 0
27.222292 19.696758 0.58566791 0
-3.5771968 20.451641 0.72335023 0
24.891853 20.195515 0.55866897 0
27.190432 20.193439 0.59034503 0
19.366016 20.967764 0.99505442 0
19.616693 20.848846 0.99798596 0
24.868553 20.6292 0.56315428 0
27.168114 20.69718 0.59531903 0
19.310867 21.040277 0.99561286 0
19.686739 21.472979 0.50765562 0
27.159004 21.006546 0.5984779 0
19.631838 21.679785 0.50968009 0
27.257826 22.897163 0.62053776 0
6.8400393 23.331959 0.84738767 0
7.2628131 23.123793 0.84473068 0
7.7022638 23.170498 0.85098928 0
27.173578 23.261881 0.62353957 0
-3.8627815 23.788488 0.83991456 0
6.6350408 23.718506 0.85838801 0
7.3442869 23.680311 0.86411154 0
8.2452641 23.688274 0.87421834 0
26.998356 23.702629 0.62626213 0
27.020618 23.722469 0.62678576 0
24.807302 24.487448 0.60759968 0
26.969053 24.351923 0.63341761 0
24.637354 24.777016 0.60906571 0
25.149445 24.51767 0.61223036 0
26.94462 24.708464 0.63729209 0
24.615236 25.21987 0.61430144 0
26.926992 25.163164 0.64245802 0
26.958565 25.503424 0.64692581 0
29.091791 28.093021 0.70507717 0
29.156551 30.819376 0.73970276 0
6.8624053 31.10861 0.55521917 0
29.157658 31.00526 0.74207634 0
-2.915628 51.179283 0.89394712 0
6.8445082 51.471085 0.90550065 0
7.3263946 51.386528 0.90518653 0
7.5560884 51.327038 0.9047327 0
10.752413 51.360641 0.9150995 0
11.007285 51.406902 0.91680986 0
7.1329222 51.771118 0.91136467 0
8.1480961 51.944962 0.91694939 0
22.646023 51.648891 0.98354775 0
-16.318169 52.193531 0.95369262 0
-15.831786 52.355637 0.95390195 0
-15.297474 52.340656 0.95099324 0
-14.981214 52.471054 0.95164478 0
-14.280975 52.472363 0.94838697 0
-13.748485 52.443436 0.94550157 0
-13.402437 52.446518 0.94403553 0
0.24825123 52.257286 0.91132981 0
0.73699701 52.170937 0.9098987 0
8.0243988 52.227242 0.92148703 0
-13.760928 52.506588 0.9466185 0
-13.175894 52.590408 0.94550157 0
-12.748341 52.605045 0.94396585 0
-9.9359417 52.959949 0.9397074 0
3.7135456 52.907837 0.92494261 0
-10.111732 53.028454 0.94145262 0
-9.8598938 53.486652 0.94850338 0
-7.7819071 53.310959 0.93956774 0
-7.1845798 53.24334 0.93694985 0
-6.7882733 53.24902 0.93614697 0
-3.7809401 53.201836 0.93014342 0
-3.2961659 53.49453 0.93468106 0
-2.6200292 53.283646 0.93035293 0
-2.2897727 53.32938 0.93088812 0
-1.8801057 53.438869 0.93251693 0
-9.7331114 53.745621 0.95255232 0
-7.6401005 53.509235 0.94263941 0
-7.4975758 53.654575 0.94480342 0
-6.7076583 53.551785 0.94121987 0
-6.2428913 53.58744 0.9408592 0
-5.9062843 53.623573 0.94082427 0
-4.2328339 53.727386 0.93988186 0
-3.6462111 53.692287 0.93852061 0
-3.4728873 53.631634 0.93726403 0
-1.6365408 53.719036 0.93726403 0
-1.3222014 53.880905 0.93994015 0
-0.83372712 53.977486 0.94145262 0
-4.6201515 54.281513 0.95007408 0
-4.0138946 54.207462 0.94794488 0
-0.66556126 54.095806 0.94347703 0
3.3912914 54.430294 0.95108634 0
-4.9044952 54.579884 0.95569372 0
3.0760689 54.757454 0.95646161 0
3.5740645 54.598961 0.95422781 0
3.2659543 55.062973 0.96197671 0
21.551405 -78.768631 1.424605 0
21.66943 -78.238365 1.4162279 0
21.795321 -77.742439 1.4084791 0
22.020903 -77.60817 1.4072922 0
22.131042 -77.119247 1.3996131 0
4.4949055 -71.604279 1.2514771 0
4.2393031 -71.103035 1.2424717 0
3.3430598 -70.834496 1.2369567 0
3.7770576 -70.771065 1.2362353 0
20.38229 -70.193665 1.275003 0
20.643276 -70.267433 1.2775162 0
20.713591 -69.696167 1.2683012 0
20.866854 -69.41243 1.2643222 0
21.218117 -69.41243 1.2661023 0
21.531769 -69.292824 1.2657183 0
22.287848 -69.452477 1.2723502 0
21.781013 -68.946404 1.2612505 0
22.350521 -68.902756 1.2635542 0
22.514555 -68.672577 1.2606223 0
-3.4666331 -66.207352 1.1563965 0
-3.6397085 -65.569206 1.1454364 0
21.792269 -63.785969 1.1757338 0
21.343115 -63.114941 1.1621209 0
21.756788 -62.713158 1.1578276 0
22.01796 -62.513908 1.1560473 0
22.111027 -62.247681 1.152208 0
22.086107 -61.572876 1.1409686 0
27.275072 -61.772259 1.177828 0
22.261736 -61.454296 1.1400609 0
27.230556 -61.153263 1.1676358 0
27.219448 -60.614975 1.1589794 0
27.210196 -60.088303 1.1505325 0
27.194578 -59.555004 1.1419458 0
27.159163 -58.986073 1.1326612 0
27.134756 -58.473045 1.1243539 0
27.060867 -56.974617 1.1001298 0
20.508696 -56.061508 1.0411408 0
27.029781 -56.457741 1.0917528 0
20.480637 -55.471027 1.0312976 0
20.322998 -54.518532 1.0147527 0
20.69706 -54.732586 1.0205469 0
21.149916 -54.657913 1.0221525 0
21.906563 -54.565987 1.0255034 0
22.14789 -54.697235 1.0292033 0
27.102367 -54.62262 1.0635147 0
20.802996 -54.264381 1.013566 0
21.336435 -54.376976 1.0187666 0
21.66116 -54.448711 1.0220128 0
22.305702 -54.106907 1.0207099 0
22.756817 -54.255928 1.0261316 0
23.112965 -54.148659 1.0268297 0
23.681206 -54.297592 1.0331476 0
27.369213 -54.314793 1.0607922 0
22.844463 -53.967289 1.0220828 0
23.245718 -53.991669 1.0252242 0
27.838823 -53.789661 1.0563592 0
39.885471 -53.003338 1.1570247 0
40.413387 -53.004833 1.1626095 0
40.791321 -53.027634 1.1669376 0
41.321754 -53.036774 1.1727319 0
41.868439 -53.047699 1.1787704 0
42.267788 -53.055256 1.1832033 0
42.678181 -53.057056 1.187706 0
43.226665 -53.052971 1.1936747 0
43.646309 -53.055832 1.1983521 0
56.309891 -53.191032 1.3512352 0
56.846348 -53.210331 1.3582858 0
57.196827 -53.204052 1.3626839 0
57.757248 -53.219658 1.3700489 0
58.261501 -53.199593 1.3762968 0
58.6479 -53.196903 1.3812534 0
59.209793 -53.215981 1.3887577 0
59.780453 -53.223034 1.3962623 0
60.166016 -53.228428 1.4013584 0
60.741226 -53.246819 1.4091072 0
61.301968 -53.230854 1.4162977 0
61.662655 -53.205257 1.4207654 0
62.269463 -53.244453 1.4292474 0
62.817188 -53.233555 1.4364029 0
30.696602 -52.892567 1.0666213 0
31.248482 -52.893673 1.0715079 0
31.806599 -52.896381 1.0765343 0
32.250717 -52.908039 1.0807228 0
32.694939 -52.909897 1.0848067 0
33.155205 -52.90847 1.0890301 0
33.735188 -52.918667 1.0945916 0
34.791111 -52.92762 1.1047373 0
35.272881 -52.942112 1.1095891 0
35.759926 -52.950108 1.1144409 0
36.232185 -52.948235 1.1190484 0
36.723236 -52.949898 1.123935 0
37.123692 -52.992622 1.1285424 0
40.155193 -52.995113 1.1597472 0
33.519958 -47.528046 1.014334 0
39.42432 -47.631523 1.0784191 0
39.869846 -47.864597 1.086517 0
40.122768 -47.861717 1.0893093 0
33.460278 -47.144039 1.0082604 0
33.858479 -47.390739 1.0157999 0
34.160919 -47.184479 1.0159627 0
39.667015 -47.016972 1.0729041 0
34.436798 -46.957302 1.0155904 0
34.793961 -46.82597 1.017452 0
-5.6133609 -26.350548 1.4094423 0
-5.4629259 -26.440702 1.4124428 0
-1.8558534 -22.713123 1.1917944 0
10.908955 -22.073921 1.2878832 0
11.134493 -22.363352 1.3067242 0
9.9597931 -21.551472 1.2417228 0
10.193532 -21.566271 1.2476195 0
10.619614 -21.834581 1.2699493 0
10.206503 -21.491055 1.2443397 0
11.453832 -20.693268 1.2370127 0
11.681686 -20.548531 1.2362452 0
13.314987 -20.820662 1.2926981 0
10.706968 -20.225098 1.1968187 0
11.290598 -20.324032 1.2159736 0
11.896118 -20.213165 1.2266502 0
12.059147 -20.20244 1.2305229 0
11.812402 -19.76425 1.2042154 0
12.038658 -19.62188 1.2039363 0
27.147263 -19.275932 1.1610016 0
21.342674 -18.537796 1.4790142 0
27.127642 -18.757097 1.150043 0
21.15428 -18.199842 1.4599638 0
27.097595 -18.242573 1.1390499 0
21.186426 -17.787266 1.4472636 0
27.062599 -17.735342 1.1282309 0
21.281319 -17.201994 1.4315977 0
21.955513 -17.023497 1.4534743 0
22.282423 -17.168812 1.4716871 0
22.823338 -17.304443 1.4985354 0
27.047634 -17.246767 1.1185288 0
21.472094 -16.973547 1.4319118 0
21.563566 -16.883068 1.4327492 0
27.017437 -16.886768 1.1109208 0
26.979828 -16.28709 1.0988456 0
-1.8865694 -15.604897 1.233476 0
26.949093 -15.760303 1.0885292 0
26.919567 -15.239989 1.0785689 0
26.90094 -14.952868 1.0730897 0
-1.8704774 -14.046735 1.3423007 0
-6.5221939 -13.698303 1.209709 0
-6.4897952 -13.818943 1.0642047 0
21.958229 -13.637867 1.3521516 0
-6.5418153 -13.308098 1.1778196 0
10.48054 -12.572952 1.1412158 0
10.651963 -12.741379 1.1579885 0
-6.5748339 -12.056017 1.3178109 0
10.298667 -12.1758 1.3910056 0
10.818038 -12.284455 1.182418 0
11.210684 -12.297392 1.2786038 0
-6.6034174 -11.759742 1.2941121 0
10.350827 -11.82084 1.3704369 0
10.883025 -11.860726 1.4041661 0
11.256152 -11.719699 1.2668508 0
11.625493 -11.577395 1.2586477 0
-6.6335311 -11.394547 1.2650225 0
11.232831 -11.343155 1.1129413 0
11.67531 -11.445228 1.3687007 0
-6.5868521 -10.194846 1.2602715 0
-6.6215711 -9.7464609 1.2419484 0
-6.6378021 -9.2742205 1.256724 0
-2.7065501 -9.1158905 1.0777248 0
-2.140264 -9.2550011 1.3282681 0
26.482264 -9.0124407 1.4635227 0
-6.6591311 -8.7436199 1.246936 0
-2.6301718 -8.839633 1.2788892 0
-2.2434008 -8.684844 1.2180252 0
-1.8609458 -8.6934719 1.2848859 0
26.49618 -8.9214926 1.4626852 0
26.503414 -8.6965904 1.4593358 0
-6.680388 -8.2269707 1.1709911 0
-2.1980176 -8.3133163 1.2321354 0
-1.8946368 -8.3915691 1.2604477 0
26.484861 -8.2377567 1.4511017 0
-6.7030644 -7.7367473 1.0709037 0
26.461191 -7.7462821 1.4424627 0
-6.7216067 -7.2334003 1.2011443 0
26.435205 -7.2531891 1.4341098 0
-6.7447562 -6.7563062 1.2331651 0
26.409754 -6.7621813 1.4262176 0
-6.7688198 -6.2784343 1.2369739 0
26.382872 -6.2768703 1.4187579 0
-6.8167334 -5.6883187 1.184298 0
9.8433046 -5.5165858 1.3795609 0
10.292392 -5.8113246 1.2502164 0
26.358055 -5.7540011 1.411396 0
-6.928596 -5.2436066 1.221069 0
9.9241495 -5.2964106 1.2933325 0
10.117779 -5.2045264 1.2806939 0
10.808885 -5.1439657 1.2948744 0
11.27654 -5.2173476 1.3008915 0
11.996741 -5.2823472 1.3726677 0
12.005071 -5.2186079 1.3707863 0
26.336077 -5.2365437 1.4047319 0
-7.0794525 -4.5447502 1.2408148 0
-6.9515233 -4.7769008 1.2563525 0
10.296916 -4.8818088 1.368629 0
10.795056 -4.7164149 1.2545485 0
11.011264 -4.909059 1.2620766 0
12.477328 -4.5910707 1.3923191 0
26.304359 -4.731432 1.3981724 0
-7.1276293 -4.3221889 1.223755 0
10.443338 -4.3082981 1.1823214 0
10.67108 -4.1825857 1.2965567 0
11.154957 -4.2477241 1.2506628 0
11.887371 -4.2204733 1.3208218 0
12.145672 -4.0081964 1.3392186 0
26.281366 -4.2239184 1.3925203 0
10.879866 -3.8258238 1.2603033 0
11.221884 -3.8040071 1.2415557 0
11.849503 -3.7714744 1.2750434 0
12.151263 -3.9268837 1.337128 0
12.698517 -3.9056163 1.1581255 0
26.261765 -3.7626529 1.3878658 0
-7.1030946 -3.1817694 1.2572135 0
10.406023 -3.1158032 1.3037485 0
10.622224 -3.0701067 1.1570883 0
-7.1029291 -2.7511377 1.2674351 0
10.433059 -2.7533777 1.176922 0
10.753551 -2.7200849 1.3004835 0
11.837205 -2.5873349 1.48185 0
21.347046 -2.5151808 1.1239669 0
21.769993 -2.7728705 1.1476228 0
-7.1078162 -2.2471335 1.2402923 0
10.831685 -2.4525139 1.1622171 0
11.918502 -2.3926442 1.4867084 0
21.291172 -2.2299237 1.2917557 0
-7.1273084 -1.7425126 1.2205819 0
21.150425 -1.7355196 1.2947557 0
-7.1738353 -1.2440009 1.2111436 0
21.304018 -1.3118522 1.2650139 0
26.103216 -1.0507143 1.3665965 0
-7.2043853 -0.76429659 1.2189227 0
26.089432 -0.76629704 1.3653752 0
-7.1415806 -0.24717817 1.2500496 0
26.068556 -0.27968881 1.3637704 0
-7.1686239 0.26593488 1.2116315 0
26.043364 0.24669205 1.3624394 0
-7.3726101 0.75514877 1.2328185 0
26.018282 0.76303339 1.361642 0
-7.4156518 1.2496758 1.2510402 0
11.34065 1.4629515 1.3980851 0
25.993523 1.3261501 1.3615199 0
26.005907 1.0831753 1.3615723 0
-7.436605 1.7444184 1.270632 0
11.27646 1.6892688 1.3941853 0
25.973906 1.7299327 1.3617467 0
-7.4545803 2.2249992 1.2643689 0
11.231273 2.3052142 1.4019443 0
25.941507 2.2557683 1.3621703 0
-7.4625816 2.746398 1.2522203 0
8.873517 2.8652682 1.3952042 0
9.8034534 2.9976523 1.2528168 0
10.16196 2.868438 1.3397433 0
10.71551 2.807843 1.3542122 0
11.107995 2.6692452 1.2242755 0
11.750854 2.9419 1.4814438 0
25.909327 2.7803898 1.3631424 0
-7.5047674 3.4420021 1.0955555 0
-7.4759383 3.2288764 1.2826084 0
8.9755793 3.0646155 1.3261803 0
9.3733931 3.3383586 1.2588594 0
9.8002539 3.2753651 1.2469269 0
10.153793 3.102186 1.2116822 0
10.825535 3.2477529 1.2499686 0
11.241459 3.3210688 1.4333459 0
11.741321 3.1930707 1.4881059 0
25.877272 3.2621176 1.3643984 0
-7.5100508 3.7679138 1.212027 0
-7.4951386 3.6403539 1.4067038 0
9.381835 3.934391 1.2730414 0
9.7400894 3.7560337 1.247332 0
10.050406 3.6640821 1.1192907 0
11.437031 3.7690799 1.2606133 0
11.755256 3.8327413 1.2944804 0
25.858316 3.7395446 1.3667711 0
-7.5433779 4.037158 1.3856295 0
-7.3806524 4.2234492 1.2346517 0
9.340683 4.2172146 1.3304818 0
9.6691999 4.2032886 1.1971242 0
10.128223 4.3772593 1.3488499 0
10.923682 4.0543861 1.0151901 0
25.837858 4.2305307 1.3696321 0
-7.3525887 4.7362723 1.2227482 0
9.377161 4.6062393 1.2584397 0
9.6785307 4.5936046 1.1209632 0
10.273485 4.7857594 1.1861889 0
10.837931 4.8238802 1.2417982 0
25.801605 4.7203298 1.3721441 0
-7.3749142 5.2389178 1.2687385 0
10.602634 5.0789824 1.0243415 0
25.781729 5.2143073 1.376017 0
-7.4368253 5.7547474 1.3013941 0
25.747599 5.7092137 1.3796455 0
-7.4312267 6.2471905 1.1864783 0
28.012585 6.392076 1.0016854 0
-7.5059018 6.9114695 1.4272201 0
-7.4598742 6.7295651 1.2032632 0
-2.3480036 6.9539585 1.4173292 0
27.974106 6.6134186 1.0021275 0
-7.5149851 7.303566 1.3565372 0
-7.4796162 7.1565571 1.1669936 0
-2.8587992 7.3552184 1.2421775 0
-2.1954155 7.157001 1.4458233 0
-7.5386381 7.7355223 1.2509577 0
-3.2413931 7.9120555 1.3346746 0
-2.8191288 7.862864 1.2803295 0
-7.5726552 8.2538338 1.2767191 0
-3.144856 8.1618347 1.1188723 0
-2.9193654 8.1293678 1.1827368 0
-7.6241183 8.7709436 1.2350452 0
-7.6402507 9.2961102 1.2599289 0
-7.5553846 9.7200193 1.2317102 0
-7.5770016 10.269009 1.2168891 0
9.0821648 10.427559 1.4483464 0
-7.7339716 10.88281 1.2808081 0
7.9332972 10.889379 1.1745107 0
8.055934 10.807303 1.1750917 0
8.7940741 10.786127 1.3353152 0
9.2595901 10.762318 1.3208073 0
9.5344677 10.608982 1.4941299 0
-7.7172728 11.243122 1.317933 0
7.8354893 11.251554 1.4360642 0
8.17453 11.265736 1.294632 0
8.6703529 11.093111 1.4124048 0
9.0314379 11.360328 1.2655014 0
-7.7362704 11.749672 1.3503851 0
7.8458633 11.724653 1.2301161 0
8.1996737 11.843405 1.2053379 0
8.9726257 11.578735 1.106654 0
9.1294947 11.668571 1.2919967 0
-7.7471704 12.254484 1.1624871 0
7.7868104 12.242139 1.2141097 0
8.6368895 12.073929 1.2081127 0
25.430893 12.224432 1.4762509 0
27.650389 12.15887 1.0531272 0
-7.7756939 12.747382 1.1595641 0
7.6971149 12.61166 1.2884718 0
25.389921 12.739675 1.4862365 0
-7.8051395 13.25767 1.2220175 0
20.657803 13.335683 1.2861037 0
25.357882 13.219452 1.4961803 0
27.557533 13.31192 1.0670521 0
-7.8517551 13.746197 1.2423519 0
20.466276 13.896506 1.2939541 0
20.579746 13.69721 1.293075 0
27.536768 13.781935 1.0736481 0
-7.8555465 14.31766 1.2816786 0
20.192858 14.24215 1.2925186 0
20.534 14.179331 1.3052588 0
27.492191 14.243753 1.079581 0
27.514074 14.254287 1.0804186 0
-7.7480907 14.730068 1.2898667 0
-3.233253 14.980276 1.1755012 0
-2.9479034 14.970511 1.3306938 0
25.294479 14.881742 1.0231602 0
25.617237 14.857764 1.0324667 0
27.482355 14.71121 1.086882 0
-7.7581453 15.157738 1.3661778 0
-3.6917953 15.174668 1.234228 0
-3.2476256 15.079851 1.2258443 0
-2.7675385 15.283793 1.2012939 0
-2.4236679 15.45156 1.3641617 0
25.172565 15.234407 1.0258218 0
27.44397 15.239133 1.0945319 0
-2.6727719 15.631375 1.216398 0
-2.2951381 15.638144 1.299929 0
25.1138 15.62807 1.0312568 0
27.424627 15.676188 1.101428 0
-8.0050602 16.329216 1.2683122 0
-2.0300596 16.367914 1.4387671 0
-1.9809809 16.377939 1.4391155 0
-8.0028973 16.72365 1.2930758 0
-8.0132713 17.222166 1.3249079 0
-7.9796538 17.408182 1.0010822 0
-8.0214987 17.737354 1.2722224 0
-7.9927697 17.650188 1.01291 0
19.98605 17.866039 1.4023943 0
20.032436 17.795977 1.4017663 0
-8.0390549 18.220175 1.2150407 0
-8.0719442 18.767612 1.2464708 0
-8.0877266 19.213604 1.2721856 0
24.860836 19.922766 1.110851 0
25.179876 19.858589 1.1181798 0
27.183733 19.903969 1.1748567 0
19.872955 20.410275 1.4904234 0
20.084869 20.440516 1.4993204 0
24.837883 20.287724 1.1182497 0
27.156029 20.277348 1.1818366 0
18.92988 20.888002 1.4748272 0
19.145285 20.866247 1.481596 0
19.75289 20.757338 1.331349 0
20.058649 20.919754 1.0104102 0
24.810225 20.654531 1.1256484 0
27.118412 20.779308 1.191364 0
19.345932 21.388403 1.0054312 0
19.759241 21.062798 1.0068505 0
27.105339 21.108818 1.1980299 0
19.639488 21.800461 1.022974 0
7.5541039 22.85092 1.2587844 0
27.016226 22.891708 1.2348838 0
6.9535027 23.407722 1.2772067 0
7.3228951 23.363214 1.2806399 0
7.7203979 23.209452 1.2793839 0
8.1000509 23.281458 1.2893486 0
26.978807 23.367432 1.2447022 0
27.013744 23.104361 1.2396301 0
6.4856138 23.997116 1.3002344 0
6.7406273 23.900091 1.2989086 0
7.09516 23.730745 1.295559 0
8.4012814 23.558678 1.3082943 0
8.5321465 23.577482 1.3115391 0
26.963446 23.72654 1.252543 0
26.929693 24.367826 1.2665725 0
24.655584 24.650949 1.2158426 0
25.099686 24.554209 1.2244837 0
26.907003 24.73348 1.2745994 0
24.560883 25.240986 1.228183 0
26.869928 25.244299 1.2857904 0
27.046875 25.728416 1.3018907 0
27.4252 26.252651 1.3240869 0
27.849447 26.826645 1.3486562 0
28.270351 27.403555 1.3732253 0
6.3835588 30.707113 1.093564 0
6.7625065 30.835751 1.1007302 0
7.1382914 30.948084 1.1074309 0
5.3553615 31.045008 1.0984499 0
5.7324786 31.206488 1.1063139 0
6.117672 31.125122 1.1060349 0
6.8274164 31.134914 1.1114093 0
7.3104057 31.242573 1.118808 0
7.7046332 31.189978 1.1202458 0
-6.5193138 32.039703 1.1400968 0
-6.4343009 32.138424 1.1428887 0
32.663681 51.897163 1.0695183 0
33.039082 51.969765 1.074091 0
32.55991 52.276016 1.0741607 0
34.068409 52.487385 1.0914037 0
32.565971 52.65353 1.0798153 0
33.779625 52.583321 1.0900773 0
34.318489 52.510647 1.0941262 0
1.6072514 57.332882 1.0003021 0
1.4495178 57.865181 1.0095171 0
16.183914 83.731346 1.4877479 0
14.877763 84.466827 1.4962298 0
15.141669 84.419922 1.4962298 0
15.793581 84.448822 1.4987779 0
13.838385 84.7892 1.4987428 0
14.092861 84.674301 1.4974864 0
14.613011 84.517082 1.4962995 0
22.022463 -86.833374 1.5628281 0
22.177956 -85.755127 1.5452709 0
22.552069 -85.535614 1.5432117 0
22.770063 -85.328827 1.5406984 0
-1.7209532 -56.751476 1.9810351 0
-1.1913663 -56.580944 1.9746135 0
2.6775339 -56.502281 1.9736363 0
-1.5305094 -56.313038 1.9655398 0
-0.74692911 -56.10693 1.9577918 0
0.21572872 -56.074726 1.9565123 0
0.56031209 -56.003227 1.9540926 0
-5.1666017 -55.701458 1.9518124 0
-0.30428791 -55.718536 1.9440881 0
0.82300448 -55.915955 1.951161 0
2.4776239 -55.967209 1.9546511 0
-5.8128066 -55.188885 1.936224 0
-5.4920263 -55.446877 1.9440415 0
1.2475339 -55.402836 1.9335251 0
1.6753161 -55.356998 1.9323153 0
2.1926012 -55.224903 1.9283369 0
-6.1293936 -54.933578 1.9285461 0
1.9230052 -54.973019 1.9191931 0
-7.7441654 -53.653076 1.8913434 0
-8.5646896 -53.028229 1.874103 0
-8.3460369 -53.202625 1.8789191 0
-9.1019125 -52.660725 1.8645405 0
-8.7977676 -52.878551 1.8702641 0
-9.7717428 -52.187328 1.8524188 0
-9.3994331 -52.448029 1.8590264 0
-10.1982 -51.796062 1.8418093 0
-19.125433 -51.058483 1.9023019 0
-18.770445 -51.057873 1.8979741 0
-18.243225 -51.057606 1.8916922 0
-17.712135 -51.065174 1.8857827 0
-17.184626 -51.073608 1.8801059 0
-16.830801 -51.082058 1.8764762 0
-15.615442 -51.119762 1.8648895 0
-15.266604 -51.094128 1.8605155 0
-14.750337 -51.095783 1.8554897 0
-14.232928 -51.092937 1.8504645 0
-13.730916 -51.117001 1.8466486 0
-13.379121 -51.085045 1.8424143 0
-21.60075 -50.822567 1.9267316 0
-21.229168 -50.832882 1.9220315 0
-16.590874 -50.891457 1.8675419 0
-16.248465 -50.895336 1.8640054 0
-15.810507 -50.89856 1.859515 0
23.838423 -50.560131 1.9503235 0
23.966269 -50.419994 1.9478108 0
-1.727221 -49.33379 1.7221506 0
-19.162951 -47.535709 1.7881106 0
-18.536203 -47.676376 1.7846206 0
-7.2130709 -47.949051 1.6915786 0
-19.292374 -47.21563 1.7794554 0
-18.698034 -47.221935 1.7719173 0
-17.865074 -47.041306 1.7555144 0
-10.600845 -47.231575 1.6887169 0
-10.362494 -47.190369 1.6855061 0
30.635557 -47.060886 1.9592576 0
-18.095919 -46.9809 1.7564218 0
30.724094 -46.874138 1.9554887 0
-5.5764446 -26.346786 1.8797973 0
-5.4173431 -26.398289 1.881053 0
-1.7934927 -22.734818 1.7912118 0
10.200123 -22.543533 1.7268912 0
10.15855 -21.819458 1.679666 0
10.792105 -21.830915 1.6995467 0
10.241176 -21.214291 1.6439089 0
9.8879728 -20.564631 1.9921478 0
10.430158 -20.534952 1.6071892 0
10.840692 -20.551586 1.6214195 0
13.856371 -20.797962 1.7441908 0
10.184738 -20.260828 1.9006342 0
10.734213 -20.455486 1.6120441 0
11.877087 -20.254717 1.638533 0
12.070915 -20.155312 1.6394631 0
10.917708 -19.591276 1.761705 0
11.207255 -19.649141 1.70963 0
11.806569 -19.587034 1.9966799 0
12.016859 -19.573727 1.6027248 0
26.354891 -19.601521 1.7188175 0
11.179646 -19.49201 1.9617016 0
12.27841 -19.255186 1.7475802 0
12.541621 -19.099352 1.9948206 0
21.861845 -19.170004 1.5213015 0
26.316378 -19.253241 1.7063614 0
21.304037 -18.627268 1.9755033 0
26.259018 -18.778627 1.6893523 0
21.383524 -18.233328 1.9617195 0
26.215445 -18.260242 1.6718197 0
21.25531 -17.669701 1.929464 0
26.173021 -17.759642 1.6551247 0
21.391077 -17.394505 1.9245812 0
21.88327 -17.27313 1.9461498 0
22.234344 -17.077404 1.9570875 0
22.675823 -17.030569 1.9796886 0
26.134346 -17.26457 1.6390051 0
22.312843 -16.921944 1.9548554 0
22.729216 -16.959246 1.9796886 0
26.097496 -16.776083 1.623409 0
26.066368 -16.414148 1.6118428 0
-1.8607733 -15.611492 1.8012717 0
25.990776 -15.587441 1.5857794 0
26.004284 -15.816181 1.5925832 0
25.966755 -15.246042 1.5755739 0
25.93185 -14.796041 1.5621759 0
-1.8616947 -14.055492 1.8605003 0
-6.5100007 -13.645534 1.7620902 0
-6.4872718 -13.80103 1.5977525 0
21.981127 -13.609345 1.8044604 0
22.016312 -13.53712 1.8039025 0
-6.5262785 -13.293347 1.6820474 0
10.343382 -13.235633 1.7604982 0
10.561513 -13.131247 1.7661129 0
13.171861 -12.528893 1.5862346 0
-6.5527549 -12.085324 1.9253206 0
9.8275347 -12.116069 1.9096113 0
10.316999 -12.237577 1.7054272 0
10.714232 -12.191897 1.8434368 0
12.912776 -12.130093 1.5457941 0
13.372905 -12.064217 1.5715226 0
-6.5858307 -11.760449 1.7680588 0
9.9194517 -11.96061 1.9020149 0
10.444484 -11.56414 1.6327345 0
10.610041 -11.78099 1.7739445 0
11.233177 -11.907925 1.7155212 0
12.937165 -11.965564 1.5375434 0
-6.6252627 -11.388368 1.7116663 0
10.533203 -11.038827 1.8675257 0
11.451817 -11.140249 1.9557593 0
11.745323 -11.259268 1.8481938 0
12.354593 -11.165437 1.7453119 0
12.597019 -11.016805 1.7538482 0
10.207996 -10.842463 1.8226169 0
10.693592 -10.773586 1.7167491 0
11.230511 -10.979561 1.6456962 0
11.676741 -10.808419 1.9477646 0
-6.5645523 -10.216301 1.7806937 0
-6.6032147 -9.9046106 1.7721134 0
-2.0611055 -9.859375 1.9485414 0
11.411509 -9.8266335 1.8431519 0
11.697014 -9.7984486 1.8676652 0
-1.7552581 -9.1671658 1.9738002 0
-6.6472611 -8.6643906 1.528051 0
-3.0074666 -8.9092274 1.9884675 0
-2.7796857 -8.7269278 1.838591 0
-2.2112062 -8.5964479 1.7169209 0
-1.8965914 -8.6323957 1.6409205 0
-1.2678801 -8.6548147 1.8132406 0
-2.5693059 -8.3151217 1.9340584 0
-2.2619331 -8.3085232 1.6674701 0
-1.8703618 -8.2698078 1.80481 0
-1.3297396 -8.4839468 1.9714711 0
25.707796 -8.1779842 1.883076 0
-2.3110173 -7.9812593 1.7559389 0
25.699909 -7.7811418 1.8743286 0
-6.7169137 -7.1986332 1.6102518 0
-6.7386661 -6.7988405 1.5459286 0
11.175318 -6.0413585 1.7786322 0
11.636097 -6.3383164 1.8554558 0
25.547541 -6.2503047 1.8358043 0
-6.8469229 -5.5416079 1.6349746 0
9.379838 -5.535646 1.9119822 0
9.9954271 -5.645988 1.6066142 0
10.092473 -5.7250285 1.623983 0
10.76223 -5.68823 1.7040354 0
11.111092 -5.9391103 1.76388 0
25.518625 -5.742126 1.825713 0
-6.9032998 -5.2168078 1.7155033 0
9.4471188 -5.2178783 1.7751052 0
9.7337179 -5.2657061 1.9430537 0
10.182332 -5.1484065 1.6429539 0
10.775173 -5.2153072 1.6756442 0
11.05993 -5.2904344 1.7162826 0
25.478292 -5.237453 1.8155284 0
-7.0686851 -4.5380721 1.7865031 0
-6.9315705 -4.7587519 1.7741449 0
9.1413126 -4.6898766 1.91506 0
9.6453133 -4.8531246 1.810158 0
10.312933 -4.7182212 1.7300667 0
10.739976 -4.6835003 1.7544919 0
11.4199 -4.8199816 1.5160546 0
25.436335 -4.7354712 1.805902 0
-7.1194806 -4.3662958 1.7596629 0
9.1587486 -4.3628001 1.8235615 0
9.9132452 -4.2039781 1.8902645 0
10.230907 -4.2198534 1.7193617 0
10.711383 -4.2431383 1.6534666 0
11.094315 -4.2037115 1.6606134 0
11.813177 -4.0284362 1.969197 0
25.408045 -4.2415676 1.7979498 0
9.2437849 -3.6854343 1.7741275 0
9.6863871 -3.7287972 1.7993945 0
10.132875 -3.7607968 1.6832229 0
10.8403 -3.8486454 1.6916549 0
11.353047 -3.9087222 1.8941084 0
11.825844 -3.841774 1.7863945 0
12.18186 -3.7543375 1.7847558 0
21.778465 -3.5753412 1.9266648 0
25.410872 -3.9592011 1.7949736 0
-7.125608 -3.2192068 1.7936491 0
8.9434614 -3.3964882 1.8502365 0
9.3277903 -3.3304069 1.8408698 0
9.6418371 -3.3878982 1.8545552 0
10.350503 -3.3303449 1.7224318 0
10.793303 -3.1583505 1.8252823 0
11.237074 -3.4059706 1.7466307 0
20.991978 -3.0144796 1.8511879 0
21.017199 -3.117425 1.8546741 0
22.033249 -3.1897137 1.5534301 0
-7.1387763 -2.7522941 1.7982886 0
10.451158 -2.7942812 1.57798 0
10.682041 -2.7536685 1.7203577 0
11.665751 -2.6832798 1.8883876 0
12.311962 -2.7358444 1.7658747 0
20.946104 -2.9407332 1.8463073 0
21.699411 -2.6682501 1.5254346 0
22.024881 -2.8817914 1.5498959 0
-7.1477537 -2.2506218 1.7596225 0
10.878931 -2.3485456 1.9540284 0
11.192825 -2.018743 1.9969541 0
11.59811 -2.482878 1.8709562 0
12.313502 -2.3006539 1.976393 0
21.576117 -2.0101151 1.8916283 0
22.792015 -2.229713 1.9993528 0
-7.1691279 -1.7468017 1.7340145 0
11.189294 -1.9170872 1.9932495 0
20.993179 -1.5704707 1.8375916 0
21.700413 -1.9188337 1.9017384 0
-7.207459 -1.2441922 1.7185985 0
21.302538 -1.294471 1.8629829 0
21.680786 -1.0851668 1.6404902 0
-7.2001271 -0.74813205 1.6996393 0
21.812195 -0.88053262 1.7134656 0
22.079573 -0.79599422 1.6971695 0
25.141588 -0.6281026 1.7552589 0
-7.1377392 -0.25276601 1.6787838 0
25.112185 -0.23705217 1.7527609 0
-7.1590462 0.2487147 1.682765 0
25.060585 0.26976696 1.7491668 0
-7.3699455 0.76050937 1.7408564 0
25.054499 0.73787785 1.7493993 0
-7.4051862 1.2536982 1.7647899 0
11.535523 1.4302477 1.8334119 0
12.079037 1.4016612 1.9183558 0
25.028334 1.2424265 1.7489744 0
-7.4226813 1.7502444 1.793376 0
11.371428 1.8439806 1.7035515 0
11.793087 1.9856622 1.673974 0
12.049726 1.6783061 1.9193465 0
24.996273 1.8126285 1.7491436 0
25.004368 1.5927474 1.7486552 0
-7.4395561 2.261476 1.7896708 0
9.4840698 2.2918808 1.8872281 0
9.6290989 2.3465846 1.8485957 0
10.284774 2.4543226 1.8559518 0
10.761816 2.3058209 1.8378508 0
11.36322 2.2629118 1.6735666 0
11.76768 2.1266742 1.6738946 0
24.995329 2.2414393 1.7515253 0
-7.4529138 2.7354815 1.7763027 0
8.9604111 2.959146 1.9955364 0
9.2056751 2.9797988 1.8714546 0
9.7726774 2.7805967 1.819122 0
10.235772 2.7197702 1.6867782 0
10.687697 2.6394053 1.646288 0
12.210474 2.7894738 1.753581 0
24.994841 2.7515078 1.7550263 0
-7.464005 3.2357745 1.739834 0
8.8691378 3.2000086 1.8769808 0
9.2056675 3.2216852 1.6690143 0
9.7544212 3.0574038 1.8863192 0
10.114169 3.2819664 1.7401524 0
10.55936 3.0125997 1.536471 0
11.822134 3.2935557 1.5009428 0
24.995052 3.263968 1.7593142 0
25.00013 3.0273948 1.7575841 0
-7.5001788 3.9953964 1.6424839 0
-7.4776015 3.7448373 1.7709612 0
8.950531 3.9948969 1.8958782 0
9.252368 3.7908332 1.7932287 0
9.6301622 3.7948401 1.7375001 0
10.241042 3.883085 1.6618123 0
12.056818 3.6991453 1.9898465 0
24.987772 3.6187749 1.7621881 0
25.021185 3.9023705 1.7674431 0
-7.5138068 4.0602016 1.7024992 0
-7.3901143 4.2937765 1.7809911 0
8.8665953 4.056603 1.8859559 0
9.0974064 4.1207852 1.6107485 0
10.210524 4.3294106 1.8477573 0
25.037596 4.2589598 1.7726049 0
-7.3282938 4.7366714 1.7257484 0
9.9374619 4.8209667 1.5851858 0
10.100598 4.6964593 1.8243881 0
20.578491 4.9499626 1.8475274 0
21.464197 4.9981236 1.5377117 0
21.518688 4.9395742 1.540502 0
25.05574 4.7336211 1.7797203 0
-7.3504725 5.2559562 1.7476152 0
10.414042 5.2454143 1.8392521 0
10.607385 5.3113952 1.753916 0
11.022453 5.2308068 1.9247696 0
21.440622 5.0636988 1.5371537 0
21.6793 5.2603822 1.5565925 0
25.086739 5.2261453 1.788556 0
-7.4530988 5.7737179 1.7645932 0
10.581027 5.6364417 1.6781492 0
25.07287 5.5884042 1.7929274 0
-7.5050478 6.4442048 1.8069003 0
-7.4682264 6.2132154 1.6936005 0
-7.515584 6.7641988 1.8232039 0
-7.4866037 6.6625395 1.5797199 0
-3.1724617 6.8466091 1.7942317 0
-2.8205514 6.8727922 1.7977022 0
-2.3478279 6.9098482 1.6899161 0
-7.5429749 7.2369432 1.7584255 0
-3.5321541 7.0858083 1.7447799 0
-3.3088906 7.1918845 1.7142646 0
-2.7433462 7.2664213 1.7816786 0
-2.2214844 7.0985303 1.7457222 0
-7.5777702 7.7622638 1.7179767 0
-3.279887 7.8059931 1.7343463 0
-2.7633975 7.7255297 1.733686 0
-7.5986362 8.2332172 1.7673235 0
-3.2636662 8.0076437 1.6714869 0
-2.9451399 8.0591927 1.5044878 0
-7.6299009 8.7353706 1.7262825 0
-7.6352582 9.2794657 1.7888997 0
-7.5402179 9.7557755 1.7572069 0
-7.5577273 10.22689 1.7176067 0
8.4110441 10.312456 1.8635279 0
8.6687584 10.337795 1.6773876 0
9.4738426 10.446505 1.7256697 0
9.5056486 10.417572 1.7256697 0
-7.7302713 10.866843 1.7660744 0
8.4298935 10.799103 1.8574829 0
8.5876188 10.716549 1.7214061 0
9.0470734 10.812303 1.9745878 0
9.5920372 10.910468 1.7778299 0
-7.7280736 11.233458 1.7797445 0
8.4155474 11.289001 1.8483149 0
8.626524 11.346418 1.8515013 0
9.8309803 11.182398 1.6916761 0
10.305498 11.094076 1.7463686 0
-7.7521539 11.744583 1.8465091 0
7.8584871 11.769874 1.7317982 0
8.2993231 11.627257 1.8623288 0
8.7733898 11.729608 1.6361983 0
9.0928917 11.689058 1.6811637 0
10.321059 11.594189 1.9000243 0
24.48649 11.865115 1.8993293 0
24.523613 11.649508 1.895144 0
-7.7574568 12.237153 1.6452576 0
7.4271545 12.327202 1.5075792 0
7.7283711 12.229264 1.5155107 0
8.1702662 12.306742 1.6592405 0
9.1497049 12.105772 1.8572887 0
21.014343 12.440429 1.7042902 0
24.440214 12.269455 1.9089557 0
-7.7848053 12.734384 1.707191 0
7.4849963 12.780273 1.5516206 0
7.5581169 12.767202 1.5543382 0
8.6996737 12.602342 1.8743505 0
20.486303 12.650516 1.6802939 0
20.731543 12.650719 1.6949627 0
24.40362 12.774046 1.9227674 0
-7.8103151 13.252222 1.747504 0
20.196196 13.227448 1.6848778 0
20.67174 13.21433 1.7122889 0
24.38236 13.231268 1.9364955 0
25.345367 13.4666 1.5016233 0
-7.8505621 13.756231 1.7994347 0
20.090134 13.739267 1.6985981 0
24.352734 13.710439 1.9508932 0
25.329473 13.760597 1.5081966 0
-7.8564081 14.290057 1.7660875 0
20.157377 14.252802 1.7229848 0
20.502518 14.470821 1.7514455 0
24.312469 14.140095 1.9633658 0
25.299936 14.257811 1.5194594 0
-7.7481523 14.764952 1.7475069 0
-3.5461149 14.944831 1.6093202 0
-3.2612453 14.89171 1.6511145 0
-2.9406874 14.96506 1.8667132 0
20.178696 14.62278 1.7392383 0
25.268667 14.763327 1.5312245 0
-7.762424 15.329314 1.6997277 0
-3.7380695 15.022496 1.622031 0
-3.1753876 15.154763 1.7939577 0
-2.7231109 15.203844 1.7411907 0
-2.3609805 15.390883 1.6658868 0
25.2234 15.263064 1.5425709 0
-3.6380694 15.559295 1.9560843 0
-2.1009228 15.913667 1.8705662 0
-1.9417684 15.900063 1.9608777 0
25.175564 15.753851 1.5539173 0
-7.9745636 16.290255 1.689095 0
-2.1868169 16.050875 1.7547013 0
-1.9969041 16.123728 1.7025596 0
-8.0042562 16.743172 1.9454838 0
-7.9647636 16.784355 1.621184 0
-8.0179977 17.178936 1.9875042 0
-7.9829025 17.291023 1.662002 0
-8.0011778 17.911537 1.7120875 0
-7.9943419 17.67211 1.6927388 0
19.962444 17.831644 1.8683574 0
20.030306 17.779434 1.8694736 0
-8.0229006 18.265024 1.7411394 0
25.01894 18.327227 1.6228333 0
-8.0432024 18.78466 1.783555 0
24.992393 18.848448 1.6380107 0
25.008644 18.740421 1.6352892 0
-8.107399 19.348219 1.8311422 0
24.972759 19.244787 1.6497864 0
24.95253 19.720272 1.6642834 0
19.425465 20.371649 1.9649934 0
19.775976 20.249817 1.9758937 0
20.103811 20.210535 1.9900126 0
24.926119 20.207092 1.6791468 0
18.82336 20.750866 1.9557483 0
19.312654 20.509821 1.9665744 0
20.370951 20.601624 1.5158585 0
24.90391 20.707836 1.6949 0
18.737597 21.379883 1.9845717 0
19.734022 21.104967 1.5117415 0
24.871943 21.209352 1.7105484 0
-8.2175045 21.831947 1.6278372 0
24.84107 21.655134 1.7245744 0
24.802406 22.37907 1.7482302 0
24.779877 22.778786 1.7614713 0
7.1687598 23.238247 1.6972029 0
7.6972394 23.408911 1.7198225 0
9.2794504 23.359152 1.7542357 0
24.755777 23.261065 1.7777476 0
6.4823308 23.999516 1.734983 0
6.7515569 23.815672 1.7276486 0
7.0052443 23.585844 1.7171253 0
7.9481225 23.760979 1.7486552 0
8.1692085 23.757418 1.7533988 0
8.8200779 23.792957 1.771047 0
9.1059942 23.776596 1.7770228 0
9.6542959 23.550953 1.7764881 0
24.736139 23.726894 1.7938148 0
-8.2859678 24.279493 1.7905788 0
6.4110217 24.035181 1.736099 0
8.5526819 24.295954 1.7977639 0
9.3923836 24.073814 1.8036234 0
24.711815 24.22216 1.8109636 0
-8.1943979 24.642092 1.8125522 0
24.690851 24.659828 1.8263155 0
5.9368048 30.431973 1.6224146 0
6.2540703 30.309599 1.6194314 0
6.6517897 30.322548 1.6244035 0
7.2091355 30.171116 1.6231997 0
7.6969676 30.424282 1.6421976 0
5.8690662 30.595613 1.6301603 0
6.3650746 30.847092 1.6481638 0
6.9235401 30.648766 1.6441865 0
7.0899715 30.717327 1.6496292 0
7.8690958 30.605396 1.6536068 0
8.1189098 30.591702 1.6562238 0
5.8073153 31.281975 1.6649114 0
5.671268 31.591139 1.6795654 0
-9.6383018 51.481777 1.8273375 0
-3.0903888 51.259735 1.7916005 0
7.37117 51.188644 1.804304 0
7.6944485 51.206898 1.806584 0
-9.8216457 51.56514 1.8313861 0
-9.4122934 51.592606 1.8297107 0
-7.5916543 51.940304 1.8313861 0
0.022072287 51.976482 1.8133779 0
0.7486183 51.92905 1.8119121 0
6.4639764 51.778442 1.8204974 0
6.7883353 51.731373 1.8203112 0
7.1978292 51.754131 1.8230101 0
8.0879364 51.622574 1.8230101 0
-0.14018743 52.136204 1.8189619 0
0.26484504 52.141644 1.8191712 0
0.5055455 52.101955 1.817845 0
6.2859344 52.287514 1.8373886 0
8.3379812 52.186058 1.8438102 0
8.5145893 52.198032 1.8452061 0
-7.5441351 52.718651 1.8580492 0
1.0101213 52.870289 1.8449271 0
6.0683427 52.558758 1.8459041 0
-3.6941621 53.415878 1.8681003 0
5.952796 53.018513 1.8613995 0
-16.108555 53.64772 1.9543718 0
-15.779905 53.757809 1.9547906 0
-15.445213 53.534695 1.9440415 0
-4.632731 53.667747 1.8794076 0
-4.3033266 53.752483 1.8814087 0
-3.979109 53.880508 1.8849916 0
3.3488379 53.883289 1.8835955 0
3.5243723 53.968246 1.886946 0
-15.492069 54.315582 1.9707047 0
-4.85569 54.262135 1.9007663 0
2.7827468 54.251663 1.8953218 0
3.1094944 54.081772 1.8900172 0
3.793376 54.226456 1.8965783 0
4.2323914 54.392994 1.9035116 0
-10.722357 54.910927 1.9520683 0
-5.5621266 54.535843 1.9126319 0
-5.2244725 54.583782 1.9131438 0
2.4139709 55.3978 1.9346886 0
2.2390985 55.549171 1.939714 0
2.5860031 55.522099 1.9392953 0
51.790741 85.196106 1.7394814 0
50.948566 86.494865 1.7513839 0
51.094162 86.153305 1.7475444 0
50.39624 87.427727 1.7605987 0
50.596336 87.141006 1.7580159 0
20.791742 87.683022 1.5721128 0
50.196831 87.717522 1.7632517 0
21.223326 88.26664 1.583771 0
49.430607 88.916527 1.7749099 0
49.263115 89.274452 1.7789587 0
48.949997 89.870285 1.7854511 0
49.082336 89.61116 1.7825888 0
48.07061 90.253105 1.7840548 0
48.644135 90.30191 1.7895348 0
47.789875 91.761536 1.8050675 0
47.398582 92.386993 1.8116295 0
47.571152 92.046219 1.8077202 0
19.453861 -135.03726 2.3805778 0
19.874058 -135.09735 2.3826723 0
20.297977 -135.04642 2.3828816 0
21.605217 -135.07028 2.386791 0
22.007143 -135.01347 2.3869305 0
28.684729 -127.82521 2.2858462 0
28.997675 -127.43877 2.2804711 0
29.330482 -126.97268 2.2738392 0
29.624647 -126.51418 2.2672074 0
29.982012 -126.26144 2.2643452 0
30.24568 -125.80779 2.2577131 0
30.566927 -125.40907 2.2522681 0
22.709238 -62.0509 2.3057399 0
22.443401 -61.926483 2.298481 0
27.428188 -60.601604 2.3212354 0
27.407728 -60.053234 2.3035064 0
27.37199 -59.502373 2.2854981 0
27.360445 -58.992512 2.2691655 0
27.3493 -58.486156 2.2529719 0
22.561731 -55.75132 2.0985765 0
27.112494 -55.706917 2.1618145 0
20.676666 -55.441978 2.0646541 0
22.546438 -55.213818 2.0809872 0
27.213449 -55.470718 2.1559513 0
20.776485 -54.917595 2.0487399 0
21.012178 -54.759418 2.0465064 0
21.870148 -54.734615 2.0566273 0
23.802824 -54.840858 2.0860126 0
27.226311 -54.62595 2.1297069 0
21.277735 -54.44347 2.039573 0
22.354881 -54.015282 2.039736 0
23.845314 -54.261681 2.0680742 0
27.362869 -54.490585 2.1276128 0
22.707106 -53.685078 2.0338495 0
23.134493 -53.762249 2.0421789 0
23.974377 -53.865921 2.0572555 0
32.201153 -52.811462 2.1583245 0
32.766674 -52.813919 2.1687479 0
33.339699 -52.815422 2.1794038 0
33.801659 -52.817852 2.1881285 0
34.152225 -52.827717 2.1950386 0
34.853661 -52.837555 2.2087195 0
35.218056 -52.83326 2.2156296 0
35.679321 -52.858398 2.2253313 0
36.155174 -52.858864 2.2346845 0
37.745052 -52.854786 2.2663732 0
38.143379 -52.883728 2.2753077 0
38.639721 -52.886497 2.2855682 0
39.169128 -52.911495 2.2972245 0
39.548969 -52.91803 2.3053212 0
42.747643 -52.953556 2.3748407 0
43.153126 -52.946247 2.3835657 0
43.690987 -52.931644 2.3950827 0
44.249405 -52.951141 2.4080653 0
-5.6241736 -26.350458 2.3530886 0
-5.4650407 -26.401648 2.3545997 0
-1.765118 -22.750917 2.3933673 0
9.889267 -22.144699 2.1176231 0
9.9221363 -21.757339 2.087903 0
9.8162298 -21.177328 2.0379336 0
9.7979507 -20.759752 2.2912881 0
10.108158 -20.794336 2.4250605 0
10.798954 -20.64292 2.443562 0
10.294281 -20.285404 2.3858621 0
10.812016 -20.275602 2.1841645 0
11.278616 -20.172928 2.2221041 0
11.764585 -20.205265 2.2978163 0
12.064992 -20.163618 2.4646418 0
13.436896 -20.188927 2.1175358 0
13.566222 -20.109463 2.1180587 0
10.957822 -19.770048 2.3707056 0
11.04388 -19.539719 2.353981 0
11.871981 -19.701513 2.0082426 0
12.217025 -19.673714 2.1579874 0
26.859772 -19.593822 2.3214955 0
10.84934 -19.480095 2.3385108 0
11.882355 -19.371225 2.3834579 0
12.236133 -19.417377 2.4072487 0
12.56084 -19.316622 2.4166982 0
26.834249 -19.256866 2.306242 0
26.779289 -18.780174 2.2838271 0
21.486971 -18.338026 2.4672046 0
21.564821 -18.178337 2.4633698 0
26.723557 -18.248945 2.2594819 0
21.559128 -17.774343 2.4403605 0
26.679337 -17.736172 2.2368808 0
21.688492 -17.32263 2.4242661 0
22.323593 -17.048424 2.4532599 0
22.511612 -17.024992 2.4651132 0
23.08362 -17.11124 2.0059173 0
26.63459 -17.231422 2.2149076 0
21.830414 -16.942104 2.4134007 0
26.59059 -16.744171 2.1939805 0
26.523888 -16.139599 2.1677523 0
-1.8414906 -15.627767 2.3292277 0
26.471584 -15.66063 2.1473832 0
26.501612 -15.898686 2.1577072 0
26.43512 -15.36245 2.1346412 0
-6.4537139 -14.773932 2.259058 0
-6.5231924 -14.248767 2.3062654 0
-6.4935112 -14.492276 2.2250993 0
-1.8237995 -14.063878 2.3653586 0
-6.5012727 -13.594315 2.3790553 0
-6.4754467 -13.761093 2.2322872 0
21.969898 -13.70374 2.2611687 0
22.008636 -13.633875 2.2608199 0
-6.5155087 -13.269177 2.2679393 0
-6.494586 -13.372793 2.0825863 0
9.9524336 -13.37645 2.3364382 0
10.220487 -13.216034 2.1937113 0
10.506701 -13.122273 2.0581293 0
-6.5712042 -12.956522 2.2933292 0
10.205153 -12.578224 2.269635 0
10.605832 -12.510797 2.0079193 0
-6.5586996 -12.213364 2.3437777 0
9.3386812 -12.086851 2.4115934 0
9.8444357 -12.166026 2.2482772 0
10.658092 -12.492412 2.0103567 0
-6.5706177 -11.748566 2.2541673 0
9.4362946 -11.942917 2.4031463 0
9.6797132 -11.773359 2.3757269 0
10.021262 -11.970118 2.1872444 0
-6.6162233 -11.295429 2.2566638 0
9.4638777 -11.312159 2.3283706 0
9.6778135 -11.186291 2.1441116 0
10.187171 -11.150478 2.2510495 0
10.855436 -11.245163 2.4679101 0
11.817777 -11.424411 2.0123065 0
-6.6468153 -10.799807 2.3793557 0
10.3702 -10.789811 2.1938169 0
10.782163 -10.578108 2.1699772 0
11.283469 -10.626144 2.3679447 0
-6.5377107 -10.254484 2.2297428 0
10.349451 -10.334513 2.1789939 0
10.91438 -10.490577 2.2103329 0
11.142147 -10.231167 2.1784177 0
11.777349 -10.192155 2.3743975 0
-6.5691533 -9.5581799 2.0365458 0
-1.880175 -9.7144146 2.4550233 0
-1.1178902 -9.7924938 2.2643573 0
10.918623 -9.8277321 2.0578136 0
11.079245 -9.9762278 2.353713 0
11.93808 -9.8404636 2.1675746 0
12.360095 -9.9646406 2.2245429 0
-3.0512037 -9.2164726 2.4085746 0
-2.3178787 -9.243125 2.399106 0
-1.709111 -9.084074 2.1869359 0
-1.1671245 -9.2262316 2.2521665 0
-2.8257232 -8.6292486 2.2111862 0
-2.2910335 -8.652462 2.121058 0
-1.7397467 -8.6174126 2.1624393 0
-1.2525095 -8.7385511 2.1297121 0
26.05158 -8.5143042 2.3936453 0
-2.579555 -8.1978874 2.1526732 0
-2.2333639 -8.1902294 2.0933368 0
-1.8646929 -8.2471304 2.1033204 0
-1.3270061 -8.3323879 2.1044171 0
26.077625 -8.3886604 2.3924251 0
-2.3715935 -7.9863968 2.0959063 0
25.896112 -6.6411252 2.334728 0
9.7579479 -6.0340481 2.4284084 0
10.095403 -6.0058212 2.4866238 0
25.885401 -6.2541909 2.3256638 0
9.7903967 -5.7167664 2.2874668 0
10.096573 -5.9654865 2.4824655 0
25.847055 -5.7372613 2.3121836 0
9.7206993 -5.3291292 2.213562 0
25.805748 -5.2248931 2.2993429 0
-7.0718493 -4.5469952 2.1015081 0
-6.9253407 -4.7272372 2.0881925 0
8.8980007 -4.7282224 2.2159908 0
9.1418962 -4.7100778 2.3464897 0
9.5661087 -4.8936563 2.2737222 0
10.988784 -4.8891358 2.1122565 0
25.764265 -4.7248535 2.2874897 0
-7.127471 -4.3770614 2.0889511 0
8.8853397 -4.2763028 2.2233632 0
9.2082329 -4.2122049 2.2386634 0
9.6916494 -4.2136955 2.1697664 0
10.009619 -4.0589938 2.4825599 0
11.064905 -4.1975079 2.0782216 0
25.748039 -4.3954334 2.28104 0
8.8819895 -3.8046129 2.0436332 0
9.2096567 -3.7121599 2.1919584 0
9.7619305 -3.7120821 2.3182032 0
10.014102 -3.5940602 2.2512679 0
10.507946 -3.5316243 2.1454563 0
21.579216 -3.5740106 2.2939117 0
9.2660389 -3.3750303 2.4018977 0
9.6913948 -3.238508 2.1866891 0
10.307682 -3.237412 2.1895881 0
10.773295 -3.1378276 2.2398374 0
11.333119 -3.1943479 2.0678024 0
12.693447 -3.0299153 2.0593033 0
20.827309 -3.084034 2.2078502 0
21.221048 -3.3125308 2.2523794 0
9.7414656 -2.9092684 2.1507771 0
10.34841 -2.9104416 2.2754683 0
10.703321 -2.7211573 2.2670276 0
11.255038 -2.7944155 2.1976233 0
11.552744 -2.951683 2.3084073 0
12.07932 -2.9055398 2.1821785 0
12.69591 -2.9680073 2.0574262 0
20.755447 -2.755477 2.1956203 0
10.813559 -2.3997896 2.1834493 0
11.308596 -2.2540143 2.2845268 0
12.366737 -2.1785734 2.4315851 0
12.589837 -2.0170887 2.4690683 0
20.575199 -2.3108439 2.171098 0
11.348897 -1.7517151 2.0164025 0
11.730824 -1.7428504 2.0827363 0
12.122036 -1.9350756 2.1560156 0
12.546125 -1.7618916 2.3964429 0
21.134029 -1.7112833 2.2235296 0
21.155859 -1.3811002 2.2232506 0
21.924892 -1.1583089 2.3025529 0
22.055189 -1.0622363 2.3157234 0
21.998259 -0.95825279 2.309243 0
22.325605 -0.73583031 2.3427618 0
25.452875 -0.67810726 2.2234302 0
25.428955 -0.24301155 2.2206783 0
25.394846 0.2705462 2.2177067 0
25.375704 0.7348507 2.2168353 0
10.026734 1.4210358 2.3268936 0
10.795359 1.3708929 2.4098802 0
11.439003 1.4691341 2.025085 0
11.858347 1.4654945 2.0983646 0
25.332468 1.2430578 2.2148015 0
10.158548 1.7479768 2.3093166 0
10.869898 1.7670465 2.2421598 0
11.36099 1.7211742 2.1886134 0
11.612596 1.869965 2.0655799 0
25.285749 1.7535628 2.2133491 0
9.3262043 2.3335788 2.3848782 0
9.6918325 2.2677064 2.2677886 0
10.344208 2.1529384 2.3178918 0
10.778464 2.3214183 2.3328471 0
11.28059 2.120682 2.1512783 0
11.761882 2.0813684 2.0976701 0
25.248594 2.2254679 2.2133491 0
-7.4739466 2.8673446 2.013483 0
8.9277802 2.8829691 2.3618197 0
9.3201971 2.8066616 2.3267622 0
9.6920528 2.7422152 2.1907101 0
10.212096 2.7118137 2.4283144 0
10.520885 2.5075872 2.2886918 0
25.223438 2.7369423 2.2155488 0
-7.5019069 3.464406 2.0787349 0
-7.4747176 3.2539971 2.0368433 0
8.7746897 3.3026948 2.1933744 0
9.2083797 3.1576107 2.3140056 0
9.8861761 3.0697086 2.0329866 0
25.196993 3.2439463 2.2184622 0
-7.5025201 3.715091 2.1066997 0
-7.4771757 3.7483068 2.0850382 0
8.4984245 3.8164678 2.3451388 0
8.7985382 3.7055633 2.295217 0
9.184 3.8150141 2.1595626 0
10.10139 3.8650551 2.2886918 0
25.164793 3.7498107 2.2217743 0
-7.5153947 4.1133566 2.1557612 0
-7.4114566 4.3006516 2.1366382 0
8.4169588 4.1529822 2.3511837 0
8.7569056 4.1736679 2.2381351 0
9.1235857 4.1744723 2.3053572 0
9.7057505 4.2178383 2.2392089 0
10.591537 4.4886732 2.0198755 0
21.344604 4.4731283 2.2870827 0
25.141054 4.2668028 2.2268291 0
-7.3230429 4.7726631 2.1462839 0
8.8074007 4.6450777 2.4811635 0
9.8465672 4.910676 2.2285068 0
10.339704 4.9356408 2.1762383 0
10.751757 4.8410301 2.0707793 0
20.966093 4.5316958 2.2494526 0
21.141302 4.567934 2.2682676 0
25.110552 4.7454123 2.2315938 0
-7.342485 5.2452974 2.1938624 0
9.8285847 5.1571846 2.1482546 0
10.174859 5.2022018 2.253587 0
10.608078 5.2144294 2.0757904 0
25.089333 5.2271605 2.2379851 0
-7.5280709 5.8612905 2.3230367 0
-7.4294658 5.7596812 2.2356856 0
10.64099 5.9069524 2.2565238 0
25.063408 5.5485783 2.2416458 0
-7.5248446 6.2480946 2.1924632 0
-7.4286947 6.2249327 2.3822784 0
10.601363 6.1583781 2.2888019 0
-7.5586395 6.7373185 2.2344117 0
-7.4198475 6.6266003 2.4765267 0
-7.5725889 7.2361927 2.2099178 0
-7.4592376 7.3913827 2.413275 0
-7.608223 7.7713242 2.2032437 0
-7.4462051 7.7069802 2.463064 0
-3.0710084 7.6525345 2.0743191 0
-2.9496298 7.5171547 2.0311451 0
-7.619873 8.2791481 2.2694707 0
-7.5932007 8.7348909 2.2634227 0
-7.6140308 9.2535315 2.2388287 0
