# .PCD v0.7 - Point Cloud Data file format
VERSION 0.7
FIELDS x y z intensity
SIZE 4 4 4 4
TYPE F F F F
COUNT 1 1 1 1
WIDTH 1420
HEIGHT 1
VIEWPOINT 0 0 0 1 0 0 0
POINTS 1420
DATA ascii
14.990892 8.4562225 -2.412148 0
15.094467 8.2436361 -2.3756824 0
15.51322 8.4386854 -2.1624498 0
20.255125 8.2488508 -2.2936532 0
22.857241 8.2556629 -2.1220181 0
-2.0745373 8.5145226 -2.0121419 0
-1.761417 8.5999489 -2.0158455 0
-1.256218 8.7022228 -2.0190661 0
-0.74829268 8.8064299 -2.0296268 0
-0.24602416 8.8716097 -2.0381067 0
0.24770111 8.9029627 -2.0453548 0
0.75256109 8.8451643 -2.0386245 0
1.2566861 8.7814398 -2.0371571 0
1.7500914 8.7380705 -2.0465543 0
2.2427671 8.6672688 -2.0560524 0
2.7185862 8.5748711 -2.0658975 0
7.915452 8.9631119 -2.3150473 0
8.2408209 8.7969122 -2.3338666 0
8.6545305 8.578455 -2.3593915 0
10.968116 8.9626741 -2.4890728 0
11.063075 8.8986712 -2.494977 0
11.931805 8.9208117 -2.3519921 0
12.003963 8.8319588 -2.3527744 0
14.948295 8.7387428 -2.4268079 0
15.454426 8.5294619 -2.1614747 0
20.196924 8.7368212 -2.307869 0
22.830976 8.7675591 -2.1354902 0
-2.0811491 9.2313261 -2.0012195 0
-1.7549484 9.3171673 -2.0052471 0
-1.2517518 9.4109945 -2.0080109 0
-0.89051253 9.4853392 -2.0148425 0
1.4208155 9.4869719 -2.0288026 0
1.7462684 9.4562559 -2.0339482 0
2.2341559 9.3926983 -2.042182 0
2.7382448 9.312768 -2.0532868 0
3.0993848 9.2596521 -2.065335 0
6.8632617 9.3628511 -2.2472212 0
7.3975406 9.168932 -2.2806761 0
7.6625018 9.0609789 -2.2973402 0
10.266749 9.4135761 -2.4476454 0
10.750925 9.1198931 -2.4774733 0
11.745732 9.2374134 -2.3592403 0
14.911175 9.0586548 -2.4452715 0
15.946258 9.0594788 -2.2459707 0
20.088455 9.2469683 -2.3193297 0
22.646429 9.2206202 -2.1350667 0
-0.64303839 9.5215502 -2.0183234 0
-0.24673252 9.56182 -2.0231028 0
0.25580761 9.5958853 -2.0303924 0
0.74694777 9.613574 -2.0395617 0
1.1831815 9.6274271 -2.0516722 0
9.2923708 9.9084101 -2.3868289 0
9.7477713 9.6846991 -2.4145646 0
10.068206 9.5219698 -2.4350107 0
11.550906 9.7370787 -2.3852501 0
19.951998 9.7656269 -2.3297305 0
20.01865 9.5553398 -2.3263855 0
22.547052 9.7543669 -2.1451268 0
-1.0604901 10.286276 -2.0006959 0
-0.76017708 10.333868 -2.0049734 0
-0.25021538 10.396327 -2.0122716 0
0.2481602 10.446111 -2.0219138 0
0.75157237 10.417443 -2.0210488 0
1.2570744 10.329006 -2.0134168 0
1.7581391 10.308319 -2.0234911 0
2.253372 10.232426 -2.0274887 0
2.7633026 10.198594 -2.0447092 0
3.2480893 10.17 -2.0660253 0
3.5676301 10.13505 -2.0792074 0
7.9779801 10.294445 -2.2879884 0
8.2661734 10.269085 -2.316088 0
8.7607393 10.127001 -2.3527591 0
9.0485992 10.014125 -2.3713396 0
11.465031 10.254475 -2.4286969 0
19.890459 10.257424 -2.3471715 0
22.488138 10.143812 -2.1541412 0
22.508432 10.069466 -2.1530955 0
7.4449196 10.583666 -2.2731702 0
7.7039866 10.565325 -2.2971916 0
11.392511 10.771668 -2.475697 0
19.835257 10.575833 -2.3575349 0
-0.25278461 11.412165 -2.0044558 0
0.25915208 11.461343 -2.013128 0
0.52572095 11.495352 -2.0205703 0
1.7903816 11.314116 -2.0114141 0
2.2497916 11.267385 -2.0176532 0
2.7485926 11.21905 -2.0283709 0
3.2526042 11.229471 -2.053117 0
3.7528551 11.189131 -2.0726111 0
4.0296268 11.210896 -2.092113 0
10.329409 11.431226 -2.4326341 0
10.758365 11.260302 -2.4590869 0
11.196417 11.119375 -2.491688 0
19.8235 11.24883 -2.3905959 0
0.77643639 11.520155 -2.0275698 0
1.2605911 11.521848 -2.0354049 0
1.5649794 11.505113 -2.038861 0
8.7938824 11.904397 -2.3365052 0
9.3233881 11.763597 -2.3698256 0
9.7495689 11.623003 -2.3952618 0
10.063275 11.523872 -2.4155567 0
11.613944 11.851346 -2.3253043 0
19.473309 11.940429 -2.3957925 0
19.770931 11.748257 -2.4121687 0
21.578623 11.981917 -2.1551874 0
22.187462 11.740587 -2.191967 0
2.373436 12.476729 -2.0039701 0
2.7551801 12.476479 -2.0161793 0
3.2412698 12.389745 -2.0208929 0
3.7736342 12.447888 -2.0527327 0
4.2485795 12.41061 -2.0701115 0
4.7583985 12.441356 -2.1022184 0
5.2487559 12.422647 -2.1284921 0
6.8642983 12.277731 -2.2202742 0
11.368301 12.261099 -2.3432298 0
11.520478 12.008493 -2.3319845 0
19.674749 12.259346 -2.4314716 0
20.342897 12.341416 -2.0775025 0
20.651091 12.099792 -2.0898204 0
21.237265 12.049029 -2.1320386 0
-0.025133772 12.680635 -2.0007968 0
0.25056502 12.716002 -2.0068977 0
0.74401677 12.754633 -2.0160789 0
3.7987254 12.532941 -2.0666037 0
11.216051 12.752486 -2.3800986 0
15.078718 12.556399 -2.1957171 0
19.554516 12.750972 -2.4485943 0
20.162685 12.748375 -2.0828478 0
11.147933 13.240341 -2.425827 0
19.457817 13.243428 -2.468823 0
20.105074 13.239376 -2.1019061 0
10.957527 13.901266 -2.4808998 0
11.066093 13.690151 -2.4672608 0
19.395807 13.687352 -2.4900353 0
20.063004 13.749752 -2.1237531 0
0.79336607 14.278044 -2.003041 0
1.2392484 14.305594 -2.0113802 0
1.7520317 14.303266 -2.0185666 0
2.4155886 14.086499 -2.0018659 0
2.7378747 14.121049 -2.0148723 0
3.2240255 14.059793 -2.0205908 0
3.7359893 14.166504 -2.0523582 0
4.2415538 14.281868 -2.0871513 0
4.7472086 14.272752 -2.1072831 0
5.2482519 14.296712 -2.1336782 0
5.7323093 14.307302 -2.1594653 0
6.2590322 14.322912 -2.1900837 0
6.8312197 14.32501 -2.2237635 0
14.410338 14.428637 -2.497956 0
14.53161 14.327877 -2.4997838 0
20.035139 14.236616 -2.1461232 0
14.305949 14.547631 -2.4992967 0
19.985373 14.861005 -2.1747103 0
20.011988 14.594139 -2.1627407 0
19.927942 15.246628 -2.1910374 0
3.6845951 15.941332 -2.0030446 0
15.536128 15.983 -2.3376746 0
19.817911 15.748416 -2.210444 0
2.869117 16.111174 -2.0034347 0
3.2557876 16.113567 -2.0126481 0
3.5753024 16.031254 -2.0108442 0
4.3379359 16.234505 -2.0573981 0
4.7645435 16.311176 -2.0806074 0
5.2580867 16.400455 -2.1088271 0
5.6474433 16.46648 -2.1315436 0
14.425776 16.332642 -2.285306 0
14.723214 16.157751 -2.2925184 0
15.254426 16.08116 -2.3246534 0
19.710379 16.013214 -2.2175906 0
5.8906212 16.509382 -2.1463628 0
6.2517176 16.545389 -2.1658618 0
6.718039 16.609163 -2.1939733 0
7.4081178 16.885721 -2.2581575 0
14.317243 16.722448 -2.3087549 0
19.641733 16.729639 -2.2530921 0
19.571577 17.251108 -2.278321 0
19.484711 17.936108 -2.3127646 0
19.521465 17.693274 -2.3008246 0
22.354954 17.925514 -2.0003366 0
19.417761 18.263929 -2.3280461 0
22.253744 18.06986 -2.0011737 0
19.298458 18.774818 -2.3513923 0
22.116634 18.75959 -2.0246117 0
4.7933707 19.211136 -2.0760548 0
5.2717638 19.341158 -2.1019778 0
5.6288943 19.461739 -2.1242971 0
16.324266 19.239912 -2.203347 0
19.202925 19.267239 -2.3757262 0
21.992685 19.487709 -2.0513983 0
22.054455 19.240435 -2.043237 0
5.876668 19.524746 -2.1380253 0
6.2352967 19.61487 -2.1582339 0
6.6896386 19.76792 -2.1884079 0
7.341536 19.687408 -2.2033904 0
7.6688347 19.908951 -2.2373271 0
19.146173 19.752804 -2.4025354 0
21.202217 19.68214 -2.0195894 0
21.847755 19.78443 -2.0577228 0
7.1857367 20.205441 -2.24893 0
7.8613687 20.036049 -2.257118 0
8.2317982 20.148851 -2.2826231 0
8.758441 20.180519 -2.3072042 0
19.09878 20.196747 -2.4277232 0
19.235392 20.785215 -2.47348 0
20.610626 21.37289 -2.0728834 0
4.9934244 22.998587 -2.0547838 0
5.3152633 22.773106 -2.0417454 0
5.7200432 22.757172 -2.0487411 0
4.9297576 23.040842 -2.0572243 0
5.1234179 23.078125 -2.0640221 0
6.0679116 23.08499 -2.0840681 0
7.2271132 23.363916 -2.135432 0
6.3397622 23.525238 -2.1274135 0
6.5878825 23.575594 -2.1374075 0
7.2552299 23.709154 -2.1650648 0
7.6451244 23.928747 -2.1935356 0
6.8866568 24.066786 -2.1858661 0
7.0866718 24.207926 -2.2026 0
7.8921275 24.30547 -2.2315359 0
8.2058086 24.371906 -2.2456899 0
9.6831942 24.439428 -2.2956822 0
8.7273226 24.532372 -2.2738934 0
9.2773438 24.624443 -2.2980063 0
9.7710466 24.657042 -2.316251 0
10.285778 24.842607 -2.3481851 0
1.2698455 28.635986 -2.0010343 0
6.2377524 28.888277 -2.063257 0
6.1261277 29.23838 -2.0855789 0
7.1914535 29.333805 -2.1085987 0
8.2458858 29.465485 -2.1362221 0
5.9650412 29.599453 -2.1080406 0
6.0389009 29.507092 -2.1027391 0
6.9626532 29.786621 -2.1356642 0
7.0598168 29.579126 -2.1231079 0
8.1089964 29.685396 -2.1484993 0
9.1477766 29.830177 -2.1784484 0
18.024939 39.30928 -2.2638443 0
17.802925 39.627129 -2.2742066 0
18.032717 39.639473 -2.2797542 0
17.212706 41.160751 -2.3356493 0
17.572069 41.312798 -2.3503032 0
16.910671 41.850826 -2.3630731 0
17.100323 41.771477 -2.3629684 0
43.330334 47.301037 -2.2384071 0
44.272346 47.444809 -2.2644188 0
44.620972 47.378151 -2.27105 0
44.26902 47.726379 -2.2715387 0
36.909988 48.950752 -2.1391995 0
42.671982 48.80682 -2.2622552 0
36.798153 49.104832 -2.1411538 0
-8.2620611 -55.045643 -1.9420872 0
-7.8294258 -55.177486 -1.9444604 0
-6.7197514 -55.398022 -1.9470429 0
-8.5743389 -54.779385 -1.934549 0
-8.2236862 -54.788376 -1.9330133 0
-7.738369 -54.774345 -1.9300818 0
-7.0949512 -54.958317 -1.9334322 0
-7.26825 -54.286312 -1.9109569 0
-6.8029032 -54.024342 -1.899789 0
-12.710411 -52.862942 -1.8969504 0
-19.826168 -51.632751 -1.9297328 0
-17.118286 -51.803856 -1.9035583 0
-16.777153 -51.860546 -1.9017433 0
-16.266891 -51.92091 -1.8983465 0
-15.746291 -51.94751 -1.8938794 0
-15.290514 -51.899559 -1.8877138 0
-7.6111665 -37.311558 -1.9931625 0
-10.291395 -31.369864 -1.7277147 0
6.2130594 -30.113148 -1.608912 0
-11.703424 -29.777868 -1.6742901 0
-8.7051516 -29.891663 -1.6291137 0
6.3003583 -29.617941 -1.5844536 0
6.6953235 -29.649162 -1.5904547 0
-12.092175 -29.175491 -1.6526299 0
-11.926819 -29.405952 -1.6605151 0
-12.281095 -28.791168 -1.6379061 0
-12.58565 -28.162834 -1.6141106 0
-12.425136 -28.391857 -1.6216819 0
20.115749 -28.064091 -1.807056 0
-13.025414 -27.523926 -1.5933158 0
-12.804787 -27.725531 -1.5980051 0
20.328096 -27.89905 -1.8065675 0
20.503281 -27.777309 -1.8068465 0
-13.129118 -27.191902 -1.5799701 0
-6.8431029 -27.097223 -1.9509491 0
-6.3947506 -27.026199 -1.9386718 0
-13.320346 -26.734386 -1.5628563 0
-7.0772734 -26.820438 -1.9363002 0
-6.7266221 -26.966867 -1.9401602 0
-6.4742274 -26.999067 -1.9381139 0
-13.607895 -26.381943 -1.5531917 0
-13.429496 -26.440456 -1.5516564 0
-7.5166407 -26.018103 -1.8904004 0
-7.2709937 -26.230989 -1.9000734 0
5.8820772 -26.243435 -1.8772862 0
-7.6655488 -25.925985 -1.887145 0
6.4517169 -25.936607 -1.8655672 0
6.6143036 -25.902395 -1.8660322 0
24.245554 -25.562281 -1.8439003 0
24.571053 -25.594128 -1.8568797 0
-14.177301 -25.280247 -1.5164866 0
-8.219306 -25.323606 -1.8583822 0
21.868139 -24.741886 -1.7280285 0
-8.7951765 -24.361916 -1.8078088 0
21.831192 -24.09149 -1.7013372 0
-9.2683458 -23.737757 -1.778604 0
21.927902 -23.897884 -1.6972551 0
22.259453 -23.884089 -1.7085247 0
24.128639 -23.689228 -1.7695835 0
-9.6970501 -23.22183 -1.7563883 0
-9.4624214 -23.479431 -1.7667921 0
17.327341 -23.16831 -1.5136956 0
24.108936 -23.233753 -1.7522078 0
-10.096394 -22.675308 -1.7323323 0
-9.9483175 -22.917076 -1.7436328 0
24.140217 -22.833904 -1.7389144 0
-10.564781 -22.050249 -1.7063828 0
-10.360953 -22.330557 -1.7180554 0
-6.8065128 -22.38308 -1.6325805 0
5.7145152 -22.104103 -1.9932518 0
-10.769343 -21.722134 -1.6920528 0
-6.2470636 -21.743139 -1.9750363 0
5.8458519 -21.953562 -1.9834323 0
6.11831 -21.770296 -1.9742519 0
6.6538644 -21.579844 -1.5757523 0
-11.027574 -21.41264 -1.6808519 0
-10.967519 -21.46139 -1.6819681 0
-6.4029036 -21.195971 -1.9329748 0
6.071322 -21.282738 -1.9320685 0
6.5975986 -21.124052 -1.9319524 0
-11.562733 -20.530588 -1.6442996 0
-11.385105 -20.746731 -1.6514845 0
-7.0866051 -20.526329 -1.5151105 0
-6.7622199 -20.649445 -1.8492438 0
24.017227 -20.684572 -1.6586311 0
-11.646333 -20.386829 -1.63844 0
-11.285068 -20.041122 -1.6049569 0
-7.0908985 -20.362511 -1.8822155 0
-6.9490657 -20.466198 -1.8867476 0
21.669907 -20.180552 -1.5493536 0
23.993206 -20.275522 -1.6437676 0
-11.518769 -19.732386 -1.594354 0
-11.479269 -19.949066 -1.606073 0
-7.7720394 -19.536819 -1.8353256 0
21.610142 -19.688147 -1.5295706 0
23.979773 -19.761715 -1.6259735 0
-11.529695 -19.268139 -1.5668001 0
-8.1184883 -19.142277 -1.8149312 0
-7.914845 -19.371723 -1.8266101 0
21.747103 -19.447199 -1.5264305 0
23.951214 -19.244642 -1.6077082 0
-11.551187 -18.77203 -1.537921 0
-8.5688467 -18.578579 -1.7857631 0
-8.3702364 -18.837385 -1.7992431 0
-7.0797386 -18.902143 -1.7617081 0
16.812485 -18.728884 -1.7565609 0
23.936268 -18.870779 -1.5948858 0
24.107849 -18.706419 -1.5966654 0
-11.54849 -18.336287 -1.5119482 0
-9.0101147 -18.0382 -1.7598487 0
-8.8127756 -18.281496 -1.7713969 0
5.6736574 -18.070288 -1.9856226 0
24.083107 -18.274294 -1.5818542 0
-9.0577669 -17.992018 -1.7581058 0
-6.2998428 -17.7381 -1.973393 0
5.4954858 -17.788315 -1.9517555 0
24.063272 -17.738764 -1.564217 0
-9.6384754 -17.209698 -1.7215004 0
-6.4013057 -17.197008 -1.9236025 0
6.3157282 -17.037819 -1.5855372 0
6.5261769 -17.116398 -1.5984364 0
24.051682 -17.331226 -1.551133 0
-10.071037 -16.563448 -1.6917511 0
-9.9572601 -16.726463 -1.6988398 0
-6.64641 -16.743813 -1.8884112 0
-10.283718 -16.224907 -1.6764504 0
-7.0947413 -16.229773 -1.8566346 0
-6.9036608 -16.41423 -1.866544 0
-10.651511 -15.710122 -1.6564239 0
-10.462116 -15.955229 -1.6650233 0
5.9265985 -15.515528 -1.7406079 0
6.0686803 -15.592856 -1.7535695 0
-11.043969 -15.073337 -1.6306258 0
-10.895793 -15.316039 -1.6402711 0
5.8573852 -15.255208 -1.8766972 0
6.0984378 -15.18588 -1.8581147 0
16.968515 -15.110839 -1.9836648 0
17.048624 -15.039392 -1.7854865 0
21.443903 -15.189715 -1.8342233 0
-11.259501 -14.734876 -1.6182728 0
-6.4449677 -14.773757 -1.9731865 0
17.1434 -14.950149 -1.8530566 0
-11.607088 -14.203618 -1.6006278 0
-11.472912 -14.446279 -1.6097666 0
-8.9552155 -14.053884 -1.7464615 0
-6.6935792 -14.24637 -1.6884135 0
-6.4693007 -14.280825 -1.919101 0
6.4897623 -14.032351 -1.8923872 0
6.7127881 -14.207782 -1.6714358 0
23.679905 -14.214499 -1.9279294 0
-11.723048 -13.734519 -1.5756263 0
-9.218873 -13.749763 -1.7349634 0
-6.6299577 -13.747327 -1.7603834 0
5.8575921 -13.852463 -1.5757316 0
6.0257316 -13.829577 -1.5804703 0
6.6794271 -13.841726 -1.881175 0
23.777102 -13.778323 -1.918303 0
-11.761215 -13.244899 -1.5455037 0
-9.6636181 -13.181169 -1.7128266 0
-9.4602661 -13.419949 -1.720678 0
-7.7503924 -13.107155 -1.5954295 0
-7.2462125 -13.223572 -1.579878 0
-6.7288408 -13.287519 -1.6904696 0
6.2664227 -13.27779 -1.7968416 0
23.829393 -13.273005 -1.9040169 0
-11.786875 -12.748993 -1.5148665 0
-10.07802 -12.625469 -1.6928734 0
-9.91751 -12.886063 -1.7040229 0
-7.6358447 -12.663652 -1.8098409 0
-7.2554517 -12.921005 -1.8136815 0
-6.7903986 -12.892385 -1.8190099 0
-6.4862041 -12.628799 -1.9885051 0
5.4358225 -12.724099 -1.6930089 0
5.9108009 -12.680216 -1.959446 0
6.0530224 -12.624935 -1.9609489 0
23.800098 -12.781099 -1.8857129 0
-10.305935 -12.23529 -1.6764086 0
-8.1113863 -12.134987 -1.7863261 0
-7.8873396 -12.374033 -1.7958667 0
-6.5081587 -12.180029 -1.9340885 0
-6.4932442 -12.359484 -1.9553821 0
5.2632337 -12.440925 -1.8437812 0
5.8177228 -12.378122 -1.9155785 0
6.2272663 -12.076332 -1.7967734 0
6.8772607 -12.109879 -1.7041235 0
23.773527 -12.251202 -1.8668228 0
-10.665499 -11.707079 -1.6595358 0
-10.479908 -11.945329 -1.6651382 0
-8.5621891 -11.585694 -1.762962 0
-8.3592672 -11.839455 -1.7736864 0
-6.6341386 -11.728949 -1.8871368 0
5.2056284 -11.801212 -1.6812485 0
6.3561211 -11.825808 -1.744341 0
6.7339554 -11.814249 -1.9044447 0
17.3113 -11.623021 -1.8200442 0
23.783155 -11.83989 -1.8544062 0
-11.054122 -11.071434 -1.6393199 0
-10.92115 -11.34072 -1.6497726 0
-8.8177414 -11.260271 -1.7502873 0
-7.0842595 -11.091 -1.8428375 0
-6.8879261 -11.339531 -1.8579298 0
5.4441032 -11.349609 -1.986092 0
5.6900029 -11.106734 -1.9690526 0
6.1953545 -11.057435 -1.9998581 0
17.300898 -11.271178 -1.8023227 0
-11.290526 -10.763864 -1.6345812 0
-9.1821499 -10.737898 -1.7289776 0
-7.5533285 -10.553462 -1.8171833 0
-7.3410563 -10.816073 -1.8304974 0
-6.5755844 -10.691048 -1.980335 0
6.0196767 -10.983152 -1.9760802 0
-11.605463 -10.239024 -1.6216247 0
-11.476913 -10.443889 -1.6259054 0
-9.5892372 -10.160153 -1.709583 0
-9.4277859 -10.400195 -1.7176752 0
-7.8006611 -10.250562 -1.8037204 0
-6.6020007 -10.265609 -1.9255518 0
6.2388082 -10.365157 -1.9085003 0
21.196308 -10.225199 -1.6422907 0
-11.829839 -9.5010366 -1.5896689 0
-9.8379831 -9.7699547 -1.6966088 0
-8.1880274 -9.7325449 -1.7808961 0
-7.9961905 -9.9986258 -1.7925496 0
-6.728241 -9.7263708 -1.8656819 0
5.8339524 -9.7131491 -1.9209476 0
21.196344 -9.7462645 -1.6280363 0
23.468477 -9.6266747 -1.7704194 0
-11.881174 -9.2435951 -1.5771718 0
-10.112487 -9.2380486 -1.6759472 0
-9.9827642 -9.4948025 -1.6856967 0
-8.6415062 -9.0068531 -1.7474574 0
-8.4326239 -9.383441 -1.7662922 0
-7.1153555 -9.1550236 -1.8289064 0
-6.7226682 -9.2730227 -1.9218069 0
-6.4892092 -9.3501005 -1.9983431 0
5.8837867 -9.4026814 -1.7699189 0
6.0927057 -9.2885828 -1.7803175 0
21.343239 -9.4141054 -1.6278371 0
21.580343 -9.3601103 -1.6415093 0
23.472809 -9.2081537 -1.7598163 0
-11.911462 -8.7469397 -1.5482291 0
-10.307822 -8.9024734 -1.6664413 0
-8.8042288 -8.7465715 -1.7375485 0
-7.5198779 -8.5399408 -1.7946162 0
-7.3612595 -8.779664 -1.8071756 0
-6.6298265 -8.7478542 -1.9270084 0
5.3099833 -8.7516022 -1.9654627 0
5.7585473 -8.9244394 -1.8642869 0
6.1851621 -8.8141146 -1.8348434 0
23.49678 -8.9254494 -1.7542359 0
23.587982 -8.7108431 -1.7549613 0
-11.933758 -8.2368622 -1.5190494 0
-10.629296 -8.1716814 -1.6403613 0
-9.0916595 -8.2578316 -1.7194141 0
-8.9766264 -8.4355116 -1.7244476 0
-7.6830993 -8.2986202 -1.7838533 0
-6.6786814 -8.2026997 -1.8700382 0
5.3403897 -8.3357515 -1.9149591 0
5.7982693 -8.291543 -1.9575307 0
23.612543 -8.2677546 -1.7460976 0
-11.946777 -7.9269176 -1.5018649 0
-10.793664 -7.7587705 -1.6263465 0
-8.0298195 -7.7885799 -1.7641636 0
-7.8409758 -7.9085989 -1.7563679 0
-7.335763 -7.6633554 -1.6725974 0
-6.7688298 -7.7648282 -1.8968261 0
5.1142178 -7.7757301 -1.917454 0
5.7476311 -7.9006481 -1.8897723 0
23.588583 -7.7718868 -1.7333554 0
-11.055489 -7.0974841 -1.6072129 0
-10.938586 -7.3608727 -1.6130017 0
-7.6462069 -7.2591162 -1.6622727 0
-7.1463919 -7.3704867 -1.8017735 0
-6.7360239 -7.2548175 -1.8158383 0
-6.3084936 -7.0347519 -1.9982392 0
-2.3941858 -7.0456405 -1.9948691 0
5.2628975 -7.1735611 -1.9338619 0
5.7789345 -7.2057095 -1.8269325 0
6.2793002 -7.1051068 -1.834056 0
16.655403 -7.0620298 -1.8963554 0
23.579771 -7.3669014 -1.7241009 0
-11.195799 -6.7351193 -1.5984383 0
-9.9415216 -6.5812621 -1.6688524 0
-7.1622801 -6.6135855 -1.5364368 0
-6.7508779 -6.7098804 -1.8444686 0
-6.4268193 -6.9032001 -1.994601 0
-3.2362876 -6.6329613 -1.9787923 0
-2.7586448 -6.879889 -1.9874755 0
-2.4861166 -6.9936771 -1.9897335 0
4.9892378 -6.5490007 -1.8149695 0
5.3316703 -6.7039576 -1.9011823 0
5.6803589 -6.697989 -1.8971202 0
6.1341228 -6.6340294 -1.9102925 0
23.536867 -6.7203279 -1.7082896 0
-11.350716 -6.2454333 -1.5849109 0
-10.078105 -6.2135005 -1.6572732 0
-9.9905434 -6.4609404 -1.6653452 0
-7.2062097 -6.3116059 -1.5096966 0
-6.809031 -6.2544675 -1.7875357 0
-6.1732678 -6.1313281 -1.9977583 0
-4.0676475 -6.0624137 -1.9569097 0
-3.7519534 -6.2989564 -1.9658247 0
-3.4779792 -6.4827194 -1.9720191 0
4.9777122 -6.2777305 -1.7412887 0
5.3578024 -6.133502 -1.7656368 0
5.7104015 -6.19841 -1.8205262 0
6.0083337 -6.1052256 -1.810495 0
-11.534146 -5.6465063 -1.5709307 0
-11.466939 -5.9008365 -1.577558 0
-10.239997 -5.7593727 -1.6445091 0
-9.1922426 -5.6722889 -1.7032585 0
-8.788784 -5.6687698 -1.6488192 0
-7.1163735 -5.5679688 -1.5848 0
-6.7841978 -5.7247076 -1.7831117 0
-6.4049983 -5.8700962 -1.994791 0
-4.5934224 -5.5890388 -1.9391006 0
-4.3233557 -5.8372297 -1.9473423 0
4.8724046 -5.5805759 -1.9823583 0
5.2932663 -5.7871361 -1.8522613 0
5.7394567 -5.8434458 -1.7592086 0
6.0165873 -5.8527684 -1.7739027 0
-11.661576 -5.2487092 -1.5644194 0
-10.401976 -5.2546096 -1.6312197 0
-9.3631811 -5.2535644 -1.6929963 0
-8.5229111 -5.0632653 -1.739538 0
-8.2978687 -5.3626366 -1.672534 0
-7.6998386 -5.2975307 -1.6957881 0
-7.2763767 -5.404901 -1.7002946 0
-6.8088379 -5.2707605 -1.8863275 0
-4.8124185 -5.3954773 -1.9379448 0
4.9708328 -5.4015622 -1.9508015 0
5.2303143 -5.278542 -1.9123317 0
5.7198315 -5.2618985 -1.8113817 0
6.1647401 -5.0970645 -1.8356006 0
-11.806441 -4.7330499 -1.5559902 0
-10.573161 -4.7404013 -1.6218162 0
-10.496236 -4.9816718 -1.6260985 0
-9.5458279 -4.6800375 -1.6762948 0
-9.4649487 -4.9327393 -1.6828594 0
-8.6355419 -4.7418256 -1.7288411 0
-7.7413573 -4.701036 -1.7513853 0
-7.1577635 -4.6553631 -1.80484 0
-6.8039131 -4.7466707 -1.8975894 0
-6.4282837 -4.8729925 -1.9992425 0
4.9295039 -4.7360182 -1.8316593 0
5.3394251 -4.719501 -1.7725966 0
5.7432499 -4.6344466 -1.7782056 0
6.0903463 -4.6316342 -1.7876605 0
-11.913905 -4.2309618 -1.5465407 0
-10.71001 -4.2576041 -1.6131461 0
-9.6580315 -4.2465696 -1.6635631 0
-8.8062658 -4.2519088 -1.7160119 0
-8.0584993 -4.174345 -1.7548555 0
-7.9566236 -4.4213681 -1.7600222 0
-7.3948488 -4.2459025 -1.8025745 0
-6.8034472 -4.2467589 -1.9158441 0
4.9191418 -4.1029654 -1.707958 0
5.2843943 -4.2438407 -1.7485789 0
5.718472 -4.3027258 -1.9039233 0
6.1233258 -4.3455825 -1.8602583 0
6.5529933 -4.2451668 -1.9347703 0
21.313904 -4.4086709 -1.5185984 0
-12.03551 -3.6770978 -1.539356 0
-11.990387 -3.9290104 -1.5433534 0
-10.851198 -3.7612212 -1.6074096 0
-9.8096733 -3.7472363 -1.6557413 0
-9.0110931 -3.5721335 -1.7007103 0
-8.9387255 -3.8168471 -1.7054387 0
-8.2081003 -3.7513504 -1.745119 0
-7.5606141 -3.7428837 -1.783226 0
-7.0704823 -3.6812513 -1.8294144 0
-6.8071909 -3.7467563 -1.9238549 0
-6.1081419 -3.6674652 -1.9095899 0
4.9099913 -3.8274872 -1.6668119 0
5.4335933 -3.723707 -1.7593414 0
5.7787194 -3.6406074 -1.7996941 0
6.0038171 -3.7562003 -1.8847203 0
-12.092872 -3.230932 -1.5310916 0
-10.932242 -3.2500374 -1.5962597 0
-9.9405298 -3.2459555 -1.64878 0
-9.097724 -3.2539461 -1.6954235 0
-8.3734999 -3.2484434 -1.7367234 0
-7.7370048 -3.2528477 -1.7740611 0
-7.2126994 -3.2478292 -1.8154192 0
-6.7642288 -3.2470632 -1.9328771 0
-6.3021102 -3.2619417 -1.9021605 0
5.3974752 -3.3037727 -1.6947002 0
5.6046886 -3.2249401 -1.6796495 0
6.3032284 -3.2934189 -1.8583298 0
6.6738496 -3.0166121 -1.9631619 0
-12.134254 -2.7472594 -1.5217825 0
-11.0403 -2.7522666 -1.5924584 0
-10.045914 -2.7400165 -1.6417795 0
-9.2296486 -2.7495878 -1.6898217 0
-8.5331726 -2.6756055 -1.7290474 0
-8.472373 -2.9172249 -1.7324184 0
-7.8961077 -2.7469971 -1.7670834 0
-7.3462429 -2.7512393 -1.8002512 0
-6.8115888 -2.720947 -1.8992339 0
-6.442822 -2.8575819 -1.8889008 0
5.2643619 -2.9278307 -1.6123492 0
5.7001948 -2.7337215 -1.6724212 0
23.352776 -2.6150053 -1.6398352 0
-12.140339 -2.2610195 -1.5104674 0
-11.065402 -2.2560062 -1.5804893 0
-10.108854 -2.245594 -1.6326334 0
-9.2987595 -2.2476444 -1.6785444 0
-8.5945168 -2.2502289 -1.7178031 0
-8.0247231 -2.1026561 -1.7531114 0
-7.9069462 -2.3054876 -1.7623202 0
-7.2546639 -2.2408037 -1.8059006 0
-6.7761478 -2.2685537 -1.8947655 0
5.4880075 -2.447341 -1.6083548 0
5.7892284 -2.2339358 -1.6574553 0
23.337715 -2.2508533 -1.6361612 0
-12.135212 -1.9705501 -1.503624 0
-11.112088 -1.7534968 -1.5744003 0
-10.16429 -1.7530913 -1.6261756 0
-9.3638639 -1.7501241 -1.6713945 0
-8.6680851 -1.7492681 -1.7097335 0
-8.0876541 -1.7495844 -1.7488655 0
-7.5548296 -1.7482357 -1.7794856 0
-7.1121335 -1.7509749 -1.8145825 0
-6.8253083 -1.7509533 -1.8823395 0
5.4314194 -1.5617262 -1.5101618 0
5.677918 -1.8032309 -1.5928524 0
6.3469195 -1.8649372 -1.7681351 0
23.314007 -1.7762958 -1.6316637 0
-11.163457 -1.2536201 -1.5721389 0
-10.209653 -1.2467703 -1.6215993 0
-9.4212313 -1.2550428 -1.6675942 0
-8.7308846 -1.2488273 -1.7052704 0
-8.1444902 -1.2561425 -1.7416761 0
-7.6269794 -1.2395891 -1.7731285 0
-7.1730709 -1.2465588 -1.8035938 0
-6.884964 -1.2543553 -1.8691682 0
5.4361076 -1.4514006 -1.505195 0
5.5208654 -1.0802565 -1.5049344 0
23.297998 -1.269393 -1.6282358 0
-11.162086 -0.75047642 -1.5656418 0
-10.218737 -0.73986375 -1.6152641 0
-9.4350243 -0.75654846 -1.6606895 0
-8.7616568 -0.74807972 -1.7001506 0
-8.1795359 -0.74938041 -1.7359378 0
-7.660058 -0.74173927 -1.7659298 0
-7.2031388 -0.7537508 -1.7940929 0
-6.9211984 -0.74904037 -1.8593508 0
5.5294361 -0.95426834 -1.5010269 0
23.169535 -0.76205814 -1.6177124 0
-11.13489 -0.25096878 -1.5586594 0
-10.20738 -0.24915661 -1.6096898 0
-9.430892 -0.24700111 -1.6552142 0
-8.7512026 -0.24571963 -1.6926163 0
-8.1919546 -0.24448881 -1.7320709 0
-7.6706824 -0.24346706 -1.7610027 0
-7.2269492 -0.25309408 -1.7913585 0
-6.9435616 -0.2458844 -1.8556341 0
6.1770101 -0.30667755 -1.6559982 0
20.705105 -0.25789458 -1.8074358 0
-11.109533 0.24682686 -1.5551015 0
-10.192553 0.2393688 -1.6073252 0
-9.4143858 0.26209575 -1.6523541 0
-8.7379313 0.25421259 -1.6900588 0
-8.1542883 0.26007 -1.7241697 0
-7.6460462 0.25333744 -1.7553892 0
-7.2157931 0.24843639 -1.7885067 0
-6.9462771 0.24752598 -1.8563681 0
6.2546039 0.14540884 -1.6751183 0
20.682749 0.2529667 -1.8054748 0
-11.061142 0.75951684 -1.551576 0
-10.15168 0.73952234 -1.6046658 0
-9.3838243 0.75938904 -1.6517413 0
-8.7023067 0.75053769 -1.6887199 0
-8.1248264 0.75066167 -1.7243538 0
-7.6057472 0.74616325 -1.7535473 0
-7.1849971 0.74925953 -1.7895066 0
-6.9345188 0.74710011 -1.8629419 0
16.230822 0.92477512 -1.8946773 0
20.674267 0.54028952 -1.8051697 0
23.023212 0.80784118 -1.6075798 0
-11.023828 1.2369658 -1.5523582 0
-10.997137 1.4746976 -1.5526152 0
-10.092834 1.2378087 -1.6030619 0
-9.3398371 1.2467093 -1.6531713 0
-8.6516991 1.2460709 -1.6899314 0
-8.0713377 1.2249142 -1.7252734 0
-7.5940557 1.2701613 -1.7545255 0
-7.1134615 1.283147 -1.8150885 0
-6.8963156 1.227875 -1.8719603 0
16.225813 1.0323155 -1.8471613 0
23.007797 1.055384 -1.6071891 0
-10.978201 1.7480643 -1.5556957 0
-10.041868 1.7380216 -1.6066604 0
-9.2790346 1.6193367 -1.652436 0
-8.6205225 1.5909437 -1.6545929 0
-8.3398829 1.6636283 -1.643705 0
-7.7636976 1.6464494 -1.618935 0
-7.1577783 1.7581873 -1.7679245 0
-6.7128282 1.7568275 -1.8596987 0
23.156523 1.7763343 -1.6206754 0
-10.909254 2.2582653 -1.5590727 0
-10.008588 2.0351124 -1.6100235 0
-9.5397406 2.0005229 -1.5361865 0
-7.1600566 2.2418611 -1.7403517 0
-6.7211838 2.2781413 -1.897006 0
-6.4972157 2.4873667 -1.8641701 0
5.2837849 2.2104549 -1.5324612 0
5.8258138 2.2785933 -1.6054598 0
23.127895 2.241046 -1.6214992 0
-10.824813 2.6100476 -1.5581819 0
-9.5096617 2.7430468 -1.5599645 0
-8.0916767 2.8548357 -1.5044879 0
-7.1919236 2.7507458 -1.7087543 0
-6.8197074 2.7459106 -1.9574481 0
-6.4019036 2.7499785 -1.8674629 0
5.2855573 2.8606796 -1.6091362 0
5.7144799 2.6856396 -1.5624928 0
23.097799 2.7434316 -1.6231735 0
-8.0959835 3.3729596 -1.6172125 0
-7.7097545 3.29442 -1.6203499 0
-7.1622782 3.2257733 -1.7896394 0
-6.6124516 3.2247331 -1.9587426 0
-6.2006741 3.2696686 -1.8774757 0
4.8149934 3.3633363 -1.5689286 0
5.2533507 3.2599776 -1.6208608 0
5.5332928 3.35566 -1.5714372 0
23.078844 3.2483792 -1.6264019 0
-8.734251 3.8965776 -1.6779376 0
-8.0617008 3.6231341 -1.7087158 0
-7.9619751 3.8626277 -1.7108696 0
-7.2492714 3.7426751 -1.8042847 0
-6.8806129 3.7761295 -1.9452364 0
-6.2951684 3.7286248 -1.9493896 0
-5.8673897 3.7794526 -1.8706306 0
4.8399954 3.8262472 -1.6286916 0
5.2222672 3.6034367 -1.6284409 0
5.5928054 3.6244032 -1.5711912 0
23.061401 3.7545719 -1.6305077 0
-9.5129156 4.0718403 -1.6312987 0
-9.4342012 4.2991424 -1.6345316 0
-8.6058578 4.2284384 -1.6824262 0
-8.4994688 4.4732156 -1.685082 0
-7.8225965 4.2371054 -1.7201731 0
-7.170548 4.2508168 -1.8311549 0
-6.620482 4.1978226 -1.942826 0
-6.189189 4.2233729 -1.9586227 0
-5.7401972 4.2477593 -1.9085619 0
-5.4249434 4.4025683 -1.8722459 0
4.7309327 4.2423472 -1.6651161 0
5.1173892 4.2130556 -1.7657115 0
22.89473 4.2711339 -1.6252328 0
23.016277 4.0344572 -1.6306273 0
-10.308122 4.7595401 -1.5890598 0
-9.285531 4.7440038 -1.644071 0
-8.3930998 4.7366033 -1.6910632 0
-7.6229768 4.7256608 -1.734273 0
-7.1528773 4.7170448 -1.8368728 0
-6.8862796 4.8130202 -1.9287567 0
-6.2800865 4.7581592 -1.9529144 0
-5.6805086 4.7299895 -1.9682992 0
-5.1998258 4.7226148 -1.8816587 0
-4.9620099 4.9448886 -1.8771955 0
4.3439469 4.9741497 -1.7690622 0
4.741374 4.7900157 -1.7714812 0
5.0948353 4.8520007 -1.7431602 0
20.481541 4.7860451 -1.8359982 0
20.506554 4.5261173 -1.8330595 0
22.826838 4.6967635 -1.6263022 0
-11.301272 5.2845116 -1.5260073 0
-10.125068 5.2565951 -1.596705 0
-9.0946093 5.1700139 -1.6493926 0
-8.9747906 5.4183245 -1.652824 0
-8.1625242 5.2408361 -1.7021543 0
-7.2702079 5.2469611 -1.804503 0
-6.6364679 5.1770291 -1.9323031 0
-6.236135 5.2377067 -1.9463986 0
-5.8423762 5.3283134 -1.959771 0
-5.2326093 5.2493854 -1.973823 0
-4.7146502 5.1864877 -1.8787181 0
-4.4439569 5.4375925 -1.8818846 0
3.8718958 5.3677516 -1.7729934 0
4.2660208 5.2726822 -1.7798872 0
4.7495308 5.3164535 -1.8067627 0
5.1470718 5.2929516 -1.8699588 0
20.453093 5.2464647 -1.8431696 0
-11.137729 5.7632442 -1.5339869 0
-10.010167 5.5343313 -1.600769 0
-9.904211 5.7794552 -1.6049442 0
-8.8106956 5.7554884 -1.659422 0
-8.0126858 5.500452 -1.7052251 0
-7.8577304 5.758749 -1.7095389 0
-7.1533246 5.6934738 -1.8371924 0
-6.9078274 5.8899455 -1.9194411 0
-6.194829 5.7234678 -1.9364569 0
-5.6729536 5.6778274 -1.9559915 0
-5.3434291 5.8486409 -1.963438 0
-4.7416282 5.7146025 -1.9774486 0
-4.2289395 5.7041278 -1.9012357 0
-3.8728383 5.9078522 -1.8931979 0
3.4541988 5.8820105 -1.8275838 0
3.7172959 5.7141504 -1.7941594 0
4.1674705 5.6990528 -1.7651324 0
4.7265573 5.7849851 -1.7458743 0
5.1081772 5.6237769 -1.7628523 0
20.425726 5.5086741 -1.8466558 0
-11.017437 6.0475893 -1.5372598 0
-10.893832 6.2906194 -1.5387627 0
-9.6723213 6.238781 -1.6109982 0
-8.5838089 6.1721053 -1.6669656 0
-8.4421196 6.4131303 -1.6715544 0
-7.6081839 6.1949801 -1.7216473 0
-7.2796655 6.3036919 -1.8104533 0
-6.6542134 6.189692 -1.9216912 0
-6.4406471 6.4330177 -1.9247079 0
-5.7284188 6.23593 -1.944252 0
-5.160533 6.1512427 -1.9640117 0
-4.8046198 6.3324361 -1.9702121 0
-4.2118883 6.1752734 -1.990448 0
-3.7114358 6.1678686 -1.9257903 0
-3.2558336 6.3268228 -1.907414 0
-2.9770391 6.4867406 -1.9127976 0
3.3442721 6.2906184 -1.8753356 0
3.7227488 6.2314439 -1.8270547 0
4.2855325 6.290297 -1.7253777 0
4.7306108 6.1734476 -1.6991726 0
5.2420254 6.0574288 -1.8383 0
22.949982 6.3712888 -1.6621573 0
-10.684352 6.7549348 -1.5462781 0
-9.5246353 6.5246935 -1.6157997 0
-9.3948145 6.7824912 -1.6218439 0
-8.2338524 6.7501206 -1.6789242 0
-7.2209558 6.7428932 -1.8219007 0
-6.9748182 6.9700022 -1.9073268 0
-6.1913919 6.7011366 -1.9293373 0
-5.9442053 6.9535317 -1.9342439 0
-5.2395153 6.7130923 -1.9553496 0
-4.7149758 6.7100592 -1.9700124 0
-4.2609663 6.7782841 -1.9846464 0
-3.9418681 6.9665656 -1.9837595 0
-2.7292852 6.6056209 -1.9158452 0
-2.2514324 6.8070073 -1.9220232 0
-1.8602576 6.9566565 -1.9301379 0
2.3964331 6.9713812 -1.9761291 0
2.7443855 6.8648458 -1.9822351 0
3.202466 6.6948919 -1.9310578 0
3.797951 6.7593784 -1.7693837 0
4.2729058 6.6066294 -1.6698283 0
4.6352229 6.8131514 -1.7414719 0
22.914881 6.7425385 -1.6669472 0
-10.528959 7.0731325 -1.5515186 0
-10.415845 7.3290343 -1.5579289 0
-9.1401482 7.2421141 -1.6322963 0
-8.9924622 7.4937429 -1.6383456 0
-8.0338087 7.0782418 -1.6882408 0
-7.8828907 7.3208752 -1.6963754 0
-7.2485557 7.2487402 -1.799134 0
-6.7309866 7.2225704 -1.9100523 0
-6.4824409 7.4717765 -1.9134326 0
-5.7080564 7.1804943 -1.9397697 0
-5.4113903 7.4222693 -1.942265 0
-4.7034459 7.1385393 -1.962833 0
-4.3379164 7.4025016 -1.9698642 0
-3.6879528 7.1214261 -1.9877915 0
-3.295537 7.3415527 -1.994673 0
-1.6154544 7.0280113 -1.932839 0
-1.2561165 7.1046209 -1.9341217 0
-0.75174797 7.2010179 -1.9409621 0
-0.25190789 7.2723751 -1.9507999 0
0.24308211 7.315176 -1.962262 0
0.74122715 7.306807 -1.969035 0
1.2388405 7.1895943 -1.9559128 0
1.7445287 7.1254349 -1.9667615 0
2.1449924 7.0431609 -1.9737307 0
3.2790399 7.2464294 -1.8565536 0
3.8155587 7.2573638 -1.7719014 0
4.1771235 7.2243519 -1.8130565 0
4.7981172 7.0942588 -1.8102179 0
22.886267 7.2358904 -1.6751121 0
-10.19039 7.7503061 -1.5661949 0
-8.8472328 7.7511106 -1.6464734 0
-7.6274891 7.7007036 -1.7092236 0
-7.2713289 7.7977285 -1.8455881 0
-6.2355514 7.7005272 -1.9169815 0
-5.9646683 7.9489722 -1.9224006 0
-5.159905 7.6317534 -1.9480734 0
-4.8149166 7.8829918 -1.9533826 0
-4.0852413 7.5516582 -1.9711335 0
-3.7524309 7.7441397 -1.9759276 0
-3.3889172 7.9334269 -1.980649 0
2.978601 7.9649973 -1.9521253 0
3.2176428 7.7881618 -1.886602 0
3.7721832 7.71873 -1.7714286 0
4.2336836 7.7326875 -1.7045305 0
22.860643 7.7346272 -1.6842469 0
-10.031405 8.0782204 -1.5755268 0
-9.8867693 8.3206768 -1.5807917 0
-8.6065998 8.1479168 -1.6589434 0
-8.443676 8.3996458 -1.6671082 0
-7.2668428 8.1844311 -1.790107 0
-6.8525414 8.3346815 -1.8942078 0
-5.7082763 8.1707106 -1.9283155 0
-5.3937922 8.4213562 -1.9346125 0
-4.5644617 8.0486202 -1.9565322 0
-4.2639265 8.2452593 -1.9631436 0
-3.8909442 8.4337988 -1.9640723 0
-3.1378775 8.064393 -1.9867676 0
-2.8900065 8.1987762 -1.9959456 0
2.9446552 8.1020851 -1.9791195 0
3.2004893 8.2051125 -1.8524979 0
3.749023 8.3080339 -1.7625982 0
4.2825255 8.2031641 -1.6896826 0
15.487113 8.4766684 -1.850572 0
22.843075 8.2436876 -1.6948431 0
-11.277665 8.86131 -1.5024399 0
-9.63451 8.7122059 -1.5891012 0
-9.4783688 8.976593 -1.596976 0
-8.1905165 8.7476645 -1.677609 0
-7.2934103 8.7662678 -1.7985791 0
-6.5987768 8.5800915 -1.9001452 0
-6.2938037 8.8421183 -1.9054416 0
-5.1429801 8.6031485 -1.9390646 0
-4.7398243 8.839879 -1.9406123 0
-3.6377451 8.5763035 -1.9700199 0
-3.2594564 8.7780943 -1.9803699 0
-2.8896115 8.955595 -1.9900382 0
2.9914944 8.5879431 -1.9227674 0
3.3206732 8.713769 -1.8412188 0
3.7867491 8.7077208 -1.711327 0
4.1150804 8.7669363 -1.6992054 0
15.460407 8.525279 -1.850572 0
22.823067 8.757453 -1.7060572 0
-11.089791 9.1649628 -1.5070914 0
-10.95578 9.4017067 -1.5123178 0
-9.2972841 9.252862 -1.6047754 0
-7.7959981 9.2562952 -1.6942443 0
-7.261107 9.2963982 -1.8607738 0
-6.0432281 9.0390291 -1.9087406 0
-5.7589893 9.2474318 -1.9126767 0
-5.4570322 9.4636669 -1.9177704 0
-4.2533488 9.1443911 -1.9512733 0
-3.7862751 9.3997307 -1.9606005 0
-2.6302435 9.0490274 -1.9928751 0
-2.3300233 9.1470318 -1.9962296 0
20.388983 9.4727554 -1.8312535 0
20.763208 9.4638319 -1.8582646 0
22.660385 9.2163687 -1.7072798 0
-10.771369 9.7457132 -1.5217736 0
-9.0821657 9.5860157 -1.6154999 0
-8.7506647 9.7353449 -1.6014442 0
-8.2398853 9.8182859 -1.567971 0
-7.7080584 9.8045063 -1.5830163 0
-7.2831182 9.7027636 -1.7891092 0
-6.7868047 9.8225117 -1.8835124 0
-5.2122836 9.6496706 -1.9255102 0
-4.8126698 9.8764639 -1.928884 0
-3.5441144 9.5164375 -1.9645694 0
-3.2606528 9.6405706 -1.9691064 0
-2.7525778 9.8539515 -1.9796095 0
-2.4058135 9.9660721 -1.983523 0
3.5282946 9.5516329 -1.9699122 0
20.260542 9.7410917 -1.7656507 0
20.683086 9.5099344 -1.5884943 0
22.542755 9.7400599 -1.7138567 0
-10.55834 10.09962 -1.5306312 0
-10.364407 10.353086 -1.5347391 0
-7.5385523 10.100211 -1.5415984 0
-7.3991613 10.275292 -1.7035441 0
-6.5397444 10.017959 -1.8872254 0
-6.2609911 10.234333 -1.8928198 0
-5.9157543 10.45393 -1.8948593 0
-4.5636673 10.029341 -1.9344407 0
-4.24402 10.189819 -1.9380771 0
-3.7976761 10.392048 -1.9425441 0
-2.1670218 10.055654 -1.990214 0
-1.7669954 10.164433 -1.9962437 0
-1.309353 10.223927 -1.9943357 0
20.215137 10.243906 -1.7953447 0
22.49531 10.132582 -1.7218688 0
22.512016 10.056336 -1.7207526 0
-10.189603 10.664738 -1.5453024 0
-7.5403023 10.74622 -1.6059942 0
-7.2699237 10.663841 -1.7549155 0
-5.6631303 10.615514 -1.8980905 0
-5.24547 10.857205 -1.9023262 0
-4.9821539 10.981072 -1.902243 0
-3.5524135 10.524077 -1.9500691 0
-3.2387047 10.675444 -1.9587948 0
-2.7481756 10.884856 -1.971208 0
-2.4529545 10.988708 -1.9768108 0
-7.5479326 11.342257 -1.6669289 0
-7.22579 11.178034 -1.8275987 0
-6.887692 11.423804 -1.8680211 0
-4.7344131 11.167663 -1.913715 0
-4.2824974 11.410263 -1.9227883 0
-2.1990893 11.052068 -1.9786052 0
-1.743543 11.173664 -1.9857481 0
-1.243394 11.253421 -1.9880236 0
-0.75889927 11.337056 -1.995168 0
-7.5518723 11.620354 -1.6957386 0
-7.4416475 11.847196 -1.711923 0
-6.638021 11.610185 -1.8728523 0
-6.2825956 11.865258 -1.8802499 0
-4.0452967 11.506308 -1.9241439 0
-3.755784 11.649125 -1.9311106 0
-3.2759082 11.895264 -1.9466705 0
-7.4233613 12.233614 -1.7511162 0
-6.0319138 12.015419 -1.8827337 0
-5.7659698 12.185125 -1.8879429 0
-5.3680673 12.425793 -1.8956072 0
-3.0275114 12.002502 -1.9529279 0
-2.7575555 12.105188 -1.958917 0
-2.2456975 12.283944 -1.9703592 0
-1.7387333 12.417543 -1.9784391 0
-1.3967479 12.482949 -1.9818369 0
2.1154928 12.478081 -1.9969381 0
15.166905 12.479806 -1.714179 0
-8.5574007 12.914486 -1.6232575 0
-8.4948854 12.992206 -1.6264628 0
-7.4178662 12.753646 -1.8056859 0
-5.0952735 12.526947 -1.8938676 0
-4.7574115 12.794983 -1.9118806 0
-4.4377475 12.971738 -1.920032 0
-1.1476341 12.526664 -1.9847623 0
-0.74257219 12.57846 -1.9882098 0
-0.27778107 12.65027 -1.9965588 0
1.2416649 12.561636 -1.9917719 0
1.7487171 12.531513 -1.9965365 0
15.112508 12.554944 -1.7147021 0
22.652519 12.793495 -1.8158308 0
-8.2883768 13.250335 -1.6377169 0
-7.1911607 13.152158 -1.8346697 0
-6.8725286 13.39754 -1.8429431 0
-4.1862817 13.095293 -1.9254878 0
-3.7524662 13.263133 -1.9305164 0
-3.3605914 13.430138 -1.9389595 0
22.611732 13.235568 -1.8287821 0
-10.246354 13.966699 -1.5112805 0
-8.0400639 13.538175 -1.6498772 0
-7.8449116 13.787603 -1.6622813 0
-6.6268845 13.588264 -1.8503828 0
-6.2644887 13.833064 -1.8587513 0
-3.105051 13.553503 -1.9474214 0
-2.7551119 13.666522 -1.9526916 0
-2.2592638 13.832452 -1.9631295 0
-1.8188803 13.96026 -1.9718664 0
22.578522 13.782308 -1.8464073 0
-10.106695 14.141353 -1.51651 0
-9.9106445 14.376429 -1.5234824 0
-7.6043091 14.221251 -1.6899639 0
-5.7523742 14.137154 -1.8682165 0
-5.2606387 14.372344 -1.8733754 0
-1.562837 14.013786 -1.974959 0
-1.2588264 14.047946 -1.9755493 0
-0.76135391 14.091897 -1.9767218 0
-0.26166669 14.151508 -1.9825336 0
0.24225968 14.236141 -1.9943968 0
0.549945 14.263719 -1.9993608 0
2.1669333 14.061448 -1.9928194 0
20.27408 14.482251 -1.7388893 0
20.66189 14.473096 -1.7606534 0
22.388147 14.242425 -1.8521274 0
-9.6707535 14.698726 -1.5351806 0
-9.4778852 14.951744 -1.544574 0
-7.5438251 14.758777 -1.7370539 0
-5.0177135 14.510114 -1.8792253 0
-4.7508121 14.685716 -1.8893811 0
-4.2346158 14.868018 -1.8923428 0
-3.9147997 14.970176 -1.8940121 0
19.991148 14.850311 -1.7380524 0
20.045298 14.601611 -1.7307976 0
20.564762 14.500268 -1.756189 0
22.300049 14.723131 -1.8652321 0
-9.2440081 15.253223 -1.5562847 0
-8.4860563 15.479391 -1.5402163 0
-7.5467958 15.22824 -1.7812696 0
-7.477706 15.451527 -1.7991438 0
-3.6678929 15.066111 -1.8980541 0
-3.2448699 15.256269 -1.9093159 0
-2.8138576 15.43943 -1.9210874 0
19.955618 15.258315 -1.7532592 0
22.265055 15.23888 -1.8833318 0
-9.0249968 15.536645 -1.5677574 0
-8.875104 15.723746 -1.575477 0
-8.3848181 15.523831 -1.5394028 0
-7.2191916 15.667819 -1.8081751 0
-6.929677 15.895903 -1.8175409 0
-2.5565965 15.519833 -1.9253731 0
-2.2513072 15.61996 -1.931873 0
-1.7540812 15.758254 -1.9410019 0
-1.2493317 15.890732 -1.9513232 0
-0.78521091 15.96907 -1.9572759 0
1.3794482 15.862511 -1.9491295 0
1.7689605 15.812521 -1.9478267 0
2.2193627 15.832768 -1.9571521 0
3.791538 15.845452 -1.9945949 0
-8.3658829 16.329947 -1.6010759 0
-6.682714 16.109465 -1.8280534 0
-6.3269877 16.342661 -1.8369135 0
-0.53896892 16.007153 -1.9606339 0
-0.26921847 16.036366 -1.9634613 0
0.22680278 16.105305 -1.971846 0
0.72737181 16.165188 -1.9810107 0
1.1278883 16.171913 -1.9846015 0
2.4725199 16.023085 -1.9847643 0
2.6333241 16.076824 -1.9943919 0
14.844571 16.423061 -1.8550246 0
-8.1063385 16.644251 -1.6155189 0
-7.92483 16.8913 -1.6281565 0
-6.0530677 16.545485 -1.8466696 0
-5.7421513 16.732389 -1.8543348 0
-5.3034892 16.893614 -1.8560076 0
2.3503509 16.750982 -1.7728027 0
2.7250791 16.765388 -1.7802358 0
3.256532 16.889093 -1.8028233 0
3.6238186 16.710442 -1.7921196 0
14.693301 16.556759 -1.6996399 0
-7.7668614 17.244066 -1.6504393 0
-5.0883269 17.139856 -1.8741255 0
-4.7529097 17.228506 -1.8734429 0
-4.2583632 17.400108 -1.8777957 0
1.965716 17.301163 -1.825067 0
2.0186293 17.066778 -1.8012345 0
-7.6436291 17.70396 -1.6828902 0
-4.0033832 17.517796 -1.883603 0
-3.7369771 17.602175 -1.8862975 0
-3.2593927 17.775482 -1.8944274 0
-2.7788646 17.941002 -1.9031614 0
1.8731956 17.703465 -1.866042 0
22.419138 17.767075 -1.8297042 0
-7.6409669 18.236685 -1.7256837 0
-2.5069377 18.014622 -1.9065992 0
-2.2353137 18.108547 -1.9127316 0
-1.7408183 18.277302 -1.9247174 0
-1.2394996 18.403194 -1.9336371 0
-0.87377083 18.477751 -1.9392121 0
1.8282983 18.35597 -1.9337766 0
2.0190434 18.487362 -1.62284 0
2.8121653 18.352472 -1.6201673 0
22.316956 18.05637 -1.5019373 0
-7.6067758 18.809082 -1.7708652 0
-0.61832708 18.541334 -1.9448149 0
-0.24800713 18.64856 -1.9552048 0
0.24313723 18.76552 -1.9675043 0
0.73823184 18.846092 -1.9773126 0
1.2367665 18.901268 -1.9858551 0
1.7170362 18.911291 -1.9429287 0
2.2469921 18.809206 -1.6531701 0
2.7954397 18.623335 -1.6434088 0
3.0894721 18.803396 -1.6629316 0
22.210903 18.724447 -1.5199617 0
-9.9679661 19.087631 -1.5024149 0
-7.269649 19.164919 -1.7891331 0
-6.8605752 19.410696 -1.796977 0
1.94189 19.416922 -1.7030231 0
16.293497 19.252369 -1.7603278 0
16.503538 19.079241 -1.7606534 0
19.838499 19.290115 -1.9315847 0
20.200811 19.163126 -1.9436945 0
22.172642 19.225142 -1.5354847 0
-6.6129723 19.549219 -1.801335 0
-6.2694316 19.729769 -1.8070289 0
-5.9022508 19.946827 -1.8157156 0
1.9291724 19.918678 -1.746601 0
16.256405 19.69548 -1.7824175 0
19.746326 19.742634 -1.949205 0
20.897917 19.58139 -1.9992206 0
22.102146 19.707123 -1.5493954 0
-7.9089346 20.365044 -1.5243185 0
-5.6931357 20.031395 -1.8177201 0
-4.8337498 20.452477 -1.8344541 0
19.774847 20.200548 -1.9733642 0
22.07547 20.114748 -1.5626471 0
-4.5964961 20.572432 -1.8400321 0
-4.2311282 20.735168 -1.8473096 0
-3.7684386 20.927824 -1.8562182 0
16.197617 20.703268 -1.8347812 0
22.306919 20.515661 -1.5857795 0
-8.364892 21.248789 -1.5935168 0
-3.5152235 21.014965 -1.8599036 0
-3.2278697 21.094738 -1.8628668 0
-2.7538097 21.269032 -1.8721552 0
-2.3387339 21.422419 -1.8811697 0
-8.096981 21.640522 -1.6123512 0
-7.8334522 21.557068 -1.6004925 0
-2.0806217 21.513361 -1.8867475 0
-1.7552618 21.629787 -1.8944172 0
-1.2603343 21.765882 -1.9032823 0
-0.75911832 21.904408 -1.9133735 0
-7.9330897 22.475029 -1.6632733 0
-0.25588399 22.054173 -1.9254447 0
0.25688374 22.191505 -1.9374721 0
0.77361709 22.259094 -1.9444197 0
1.257345 22.308285 -1.9506451 0
1.58234 22.484589 -1.9678023 0
-7.9949942 22.986111 -1.6984305 0
1.6406573 22.737474 -1.5907265 0
-7.7511215 23.955933 -1.7573051 0
1.7681198 23.512293 -1.6454157 0
-7.5772543 24.055479 -1.7602348 0
-7.2695427 24.258389 -1.7675095 0
-6.9321923 24.446289 -1.7734886 0
-6.6552629 24.609739 -1.779348 0
-6.3066282 24.835613 -1.7884443 0
1.7116715 24.792557 -1.7344249 0
-6.0677195 25.024223 -1.7972059 0
-5.7352948 25.166342 -1.8015903 0
-5.2897277 25.371965 -1.8089807 0
24.358267 25.342331 -1.8396438 0
-5.0693536 25.509932 -1.8153424 0
-4.8403711 25.586605 -1.8175747 0
-4.1734958 25.976126 -1.8363624 0
1.6834837 25.530334 -1.7857658 0
24.350924 25.644138 -1.8508086 0
-4.6936574 26.141371 -1.853848 0
-4.0307732 26.130638 -1.8454772 0
-3.8685467 26.140268 -1.8444542 0
-3.2106845 26.470984 -1.8612423 0
1.6030514 26.161152 -1.8294332 0
-4.5958114 26.529961 -1.8794254 0
-4.446847 26.641733 -1.885378 0
-3.0110145 26.524717 -1.8633349 0
-2.9108555 26.760647 -1.8789604 0
-2.2480025 26.839354 -1.8800066 0
-1.9504203 26.759752 -1.8728217 0
1.5145743 26.72401 -1.8683574 0
-3.6653543 27.070271 -1.906863 0
-2.8002644 27.322031 -1.9171867 0
-2.0546355 27.020082 -1.8915166 0
-1.3593273 27.302521 -1.9081883 0
-2.5615053 27.517773 -1.9291849 0
-1.7133383 27.560452 -1.9275806 0
-0.78191382 27.77923 -1.9399275 0
0.45809054 27.56912 -1.9247205 0
0.55314445 27.986437 -1.9540182 0
1.4821531 27.616978 -1.93058 0
-9.9308825 28.476864 -1.5780337 0
0.24991572 28.199121 -1.9685975 0
0.81725568 28.174511 -1.9676348 0
1.2575521 28.342552 -1.9805257 0
-9.8439732 28.71398 -1.5882916 0
-8.9502115 28.833601 -1.5797085 0
1.2703803 28.606142 -1.9989415 0
-9.7848463 29.277945 -1.615297 0
-8.8743095 29.227301 -1.5982703 0
1.8566631 29.438477 -1.5433525 0
2.0374439 29.397247 -1.5418173 0
-9.706028 29.653322 -1.6326724 0
-8.7345037 29.748451 -1.622345 0
-7.8323236 29.713186 -1.6078861 0
-8.713439 30.363329 -1.6529788 0
-7.6850581 30.686342 -1.6553513 0
-6.638833 31.144756 -1.6663768 0
-5.6529212 31.774796 -1.6888812 0
-5.2606459 31.853226 -1.6894572 0
-5.0553689 32.160622 -1.70364 0
-1.6235424 45.915466 -1.6027244 0
-1.3405263 45.956383 -1.6038413 0
-0.77529722 45.995392 -1.6047487 0
7.9484282 45.896599 -1.6249205 0
8.0943584 45.887329 -1.625479 0
9.2862091 45.966816 -1.6359488 0
-1.198514 46.032284 -1.606354 0
-0.77505642 46.00959 -1.6052372 0
-0.27589431 46.017014 -1.605307 0
0.22020435 46.039429 -1.6060748 0
0.7179901 46.012234 -1.6053071 0
1.2199622 46.062454 -1.6074244 0
1.7145156 46.109905 -1.6096346 0
2.1428394 46.134224 -1.6111003 0
2.715297 46.185944 -1.6139622 0
7.8434362 46.10931 -1.6316212 0
8.3637915 46.141624 -1.635879 0
8.7993565 46.118317 -1.6378683 0
9.757618 46.099274 -1.6438128 0
10.212758 46.138432 -1.6485125 0
10.686821 46.248417 -1.6559113 0
11.224816 46.293442 -1.6617744 0
11.760339 46.313061 -1.6669396 0
12.190534 46.211334 -1.6672653 0
12.60596 46.334648 -1.6751759 0
13.20465 46.272324 -1.6787007 0
13.748903 46.266888 -1.6838309 0
14.166224 46.364677 -1.6912994 0
14.722744 46.133835 -1.6894147 0
15.312844 46.260452 -1.6999778 0
15.791271 46.266918 -1.705515 0
16.279131 46.291088 -1.7118901 0
16.783247 46.357365 -1.7199868 0
17.279799 46.407848 -1.7276182 0
17.777243 46.430725 -1.7345051 0
18.197254 46.446136 -1.7402984 0
18.66185 46.373482 -1.7439278 0
19.003365 46.163319 -1.7416245 0
12.946888 46.734409 -1.691788 0
13.833034 46.563236 -1.69458 0
14.79578 46.795898 -1.7122159 0
17.957975 46.892567 -1.7518151 0
18.472694 46.502987 -1.7456728 0
18.986671 46.53738 -1.7534903 0
19.365162 46.645302 -1.7620058 0
20.476213 46.854122 -1.7839227 0
20.82164 46.842937 -1.7884363 0
21.011402 46.502541 -1.7802931 0
19.791796 47.255676 -1.7874126 0
20.206535 47.427643 -1.7985804 0
20.561954 47.435886 -1.8037455 0
20.294857 47.626568 -1.8061885 0
-3.5620973 -84.592293 -1.4770322 0
-3.3112991 -84.98671 -1.4837338 0
-4.2102351 -84.374207 -1.4737511 0
17.452095 -83.547844 -1.4889696 0
17.789505 -83.241409 -1.4849554 0
-9.0637493 -76.118744 -1.3372034 0
-8.8318567 -76.202362 -1.3381808 0
-9.0065603 -71.798424 -1.2622278 0
21.792763 -71.597572 -1.3055098 0
-9.1402216 -71.148514 -1.2512677 0
21.767267 -70.756332 -1.2913384 0
-5.5797615 -70.119781 -1.226974 0
-5.1390719 -70.15345 -1.226974 0
-4.9144626 -70.109413 -1.2259269 0
-5.3215799 -69.642487 -1.2183175 0
21.787033 -69.650925 -1.2730135 0
22.104116 -69.515366 -1.27242 0
22.325254 -69.490868 -1.2731879 0
22.571342 -69.4702 -1.2741652 0
-9.3780832 -62.239998 -1.0978261 0
-9.6726465 -61.567463 -1.0870056 0
-9.4998674 -61.731949 -1.0893792 0
-5.9666667 -61.526093 -1.0781399 0
-10.103996 -61.242722 -1.0826077 0
-9.8394794 -61.435715 -1.0851907 0
-6.2435465 -61.375923 -1.0760107 0
-5.6588039 -61.251858 -1.0728692 0
-5.2832241 -61.393776 -1.074754 0
-4.9951229 -61.367809 -1.0738815 0
-11.171167 -60.638256 -1.0754173 0
-10.825293 -60.904068 -1.0789077 0
27.777691 -60.585564 -1.1625397 0
28.246176 -60.600304 -1.1662047 0
28.576607 -60.58902 -1.1684735 0
29.835541 -60.646088 -1.17891 0
-11.63015 -60.234211 -1.069972 0
-11.381405 -60.456787 -1.072974 0
17.491844 -60.125912 -1.0921715 0
17.67985 -60.104248 -1.09273 0
-12.218795 -59.763702 -1.0639219 0
-11.876637 -59.990486 -1.0666212 0
16.969536 -59.72678 -1.0829567 0
17.202061 -59.864151 -1.0863774 0
17.807013 -59.841404 -1.0889603 0
18.050224 -59.969006 -1.0923113 0
-13.045301 -59.096199 -1.0555215 0
-12.712907 -59.360638 -1.0588026 0
-13.612425 -58.643764 -1.0500066 0
-13.282743 -58.899719 -1.0530782 0
46.313225 -58.601151 -1.3029268 0
46.775734 -58.63723 -1.3084419 0
47.222027 -58.628162 -1.3131889 0
47.693382 -58.645294 -1.3185991 0
48.307205 -58.644207 -1.3253706 0
50.206322 -58.692169 -1.3473258 0
50.678741 -58.692314 -1.3527011 0
51.167664 -58.696884 -1.3583556 0
57.317757 -58.840752 -1.4329822 0
-13.861012 -58.462284 -1.0479124 0
-15.594165 -57.012947 -1.0308788 0
-15.285213 -57.306107 -1.0344157 0
-15.799259 -56.74675 -1.0273533 0
-16.245008 -56.310143 -1.0221525 0
